ply
format ascii 1.0
element vertex 1453
property float32 x
property float32 y
property float32 z
end_header
0.538571  0.7939268 2.6117923
0.33569926 0.8399555  2.5037892
-0.9383366 -0.904093   3.7038481
-1.614994  -0.6485956  3.354292
1.0117213  -0.62355906  4.4032083
-0.82488257 -0.38562146  3.6804767
0.69369197 -0.41403803  4.6645427
0.923563   -0.36404943  4.5373645
1.0832275  -0.32520092  4.4698486
0.96042347 -0.29927957  4.5006256
1.2593573  -0.27019334  4.3545756
1.1192603  -0.26298788  4.4902787
1.1577393 -0.2386575  4.355863
1.4154253  -0.23083238  4.2542605
1.348982   -0.18592678  4.1961503
1.4442879  -0.17529073  4.279004
1.4772234  -0.15586972  4.1796556
1.6861101  -0.15865034  4.1157413
1.586854   -0.14592406  4.2927256
1.6009792  -0.12506936  4.137885
1.7916913  -0.12752296  4.013885
1.690154   -0.10860746  4.123368
1.7146281  -0.09394567  4.059148
1.7376299  -0.07893356  3.9450917
1.8324773  -0.06456766  4.0169826
-1.2084409   0.28591564  3.0486698
0.74282473 0.34287512 3.4392643
0.31624368 0.41526583 3.2143915
0.39548117 0.43889415 3.223808
0.15478715 0.60974586 2.9268165
0.82186913 0.60756105 2.8949182
0.28922054 0.6199543  2.8583333
0.39857817 0.7299582  2.676038
0.68862385 -1.0994782   4.4715767
1.0178995  -0.26886567  4.3331456
1.5455962 -0.1952235  4.172093
0.6408075  -0.69218934  4.624852
1.5857763 -0.5791911  4.050046
0.664858   -0.64064515  4.749155
0.7158747 -0.4342595  4.6562796
0.97239214 -0.29685524  4.484396
1.3021293  -0.21328355  4.386021
1.394388   -0.17672345  4.175061
1.6448202  -0.11229405  4.054536
-0.0228073   0.64058197  2.9521234
-1.2279395 -1.427823   3.6383803
-1.1028371 -1.4334977  3.676638
-1.0630599 -1.4344922  3.6787248
-1.1306115 -1.4299285  3.6687956
-0.985907  -1.4409049  3.7022312
-1.8447094 -1.367942   3.5098867
-2.0373385 -1.3525391  3.475495
-1.0940056 -1.4253006  3.6794486
-0.9686547 -1.4343802  3.7053478
-1.8643869 -1.360918   3.510427
-1.2870373 -1.4041258  3.6317253
-1.2568778 -1.4093603  3.6438377
-1.0683528 -1.4235473  3.6826067
-1.244113  -1.4065751  3.6457877
-1.0481846 -1.4229243  3.6926587
-1.0376081 -1.4242743  3.692882
-0.9946164 -1.42454    3.6990066
-1.3071187 -1.3962317  3.6284144
-1.3345474 -1.3934801  3.6303697
-1.7938366 -1.3557172  3.52945
-1.0445921 -1.4178133  3.699545
-1.8504264 -1.3429486  3.5206416
-1.9682074 -1.3321335  3.504225
-1.8226211 -1.3413146  3.5438945
-1.8899162 -1.3302455  3.518567
-1.8394221 -1.3334026  3.532279
-1.929703  -1.3222528  3.5109873
-1.8189173 -1.332085   3.538987
-1.012015  -1.3971282  3.7200308
-1.05974   -1.3882515  3.7126937
-1.2843115 -1.3650779  3.6609352
-1.2407701 -1.366556   3.667677
-1.3134285 -1.3579985  3.6520236
-1.2711916 -1.3621867  3.6622014
-1.1054654 -1.3741165  3.6995845
-0.9983034 -1.3834219  3.7285514
-0.96327937 -1.386124    3.7367811
-1.3387372 -1.3514919  3.6489096
-1.3049426 -1.354472   3.6553051
-1.0940809 -1.3751236  3.7089162
-1.2047362 -1.3618599  3.687867
-1.1836958 -1.34095    3.699446
-1.1480904 -1.3448056  3.712801
-1.1305413 -1.3460125  3.716887
-1.0111958 -1.3486526  3.741852
-1.1686254 -1.3360039  3.709073
-1.0700096 -1.3466381  3.7348459
-1.0573786 -1.3461132  3.7343829
-0.9624986 -1.3536751  3.7554502
-1.1019065 -1.3410586  3.7271016
-1.2232878 -1.3287506  3.697594
-1.2018437 -1.329359   3.7012086
-1.1879594 -1.3297443  3.7020094
-1.0242866 -1.3455408  3.7456293
-1.1900189 -1.3006506  3.589911
-1.0758682 -1.3352202  3.7337976
-1.2616267 -1.3172481  3.6903415
-1.1601086 -1.3268793  3.717636
-1.0934962 -1.330827   3.729778
-1.245662  -1.3161371  3.7013555
-0.52577406 -1.442867    4.0420938
0.7933827 -1.5121837  4.3191857
0.817807  -1.4501661  4.3249817
0.7806938 -1.3671992  4.361754
-0.25783572 -0.9758736   3.3319135
0.7854169 -1.3232116  4.3712716
0.8010187 -1.3202131  4.364006
-1.8257873 -1.049047   3.6952717
-1.1392114 -1.0385097  3.4500217
-0.71973276 -0.9492797   3.3771553
-1.9598444 -1.0330989  3.6610599
-1.2824936 -1.0918043  3.8188481
-0.68446   -0.9452144  3.3687277
-1.9846609 -1.0276188  3.673562
-1.8364887 -1.038724   3.689393
-2.122563  -1.0136411  3.6347244
-2.0869074 -1.0169129  3.6445587
-1.723516  -1.0433313  3.7294908
-1.8356564 -1.0293412  3.694089
-1.3104403 -1.0763243  3.8184514
-1.2652956 -1.0815694  3.833037
-2.1128402 -1.0094604  3.655983
-2.1403148 -1.0022051  3.6371288
-2.0605507 -1.0080183  3.6519926
-0.7622527 -0.9332308  3.3893824
-0.7123946 -0.9317309  3.3833447
-2.0187082 -1.0086001  3.6578012
-1.9676291 -1.0111204  3.67512
-1.7953683 -1.0266497  3.7135777
-1.6228783 -1.0407841  3.7488751
-0.6166063 -0.9250465  3.3658369
-1.2966464 -1.0681677  3.8284218
-2.0188615 -1.006426   3.671241
-2.000146  -1.0070583  3.6715345
-1.9174029 -1.0144864  3.6904266
-1.260014  -1.0705565  3.836434
-0.5656318 -0.9196323  3.35953
-1.8996178 -1.0129721  3.6867714
-1.8295252 -1.0184814  3.703834
-0.5001576 -0.9154789  3.3476064
-1.6579485 -1.0346379  3.7533891
-1.6014698 -1.037216   3.757232
-0.7645375 -0.9247203  3.3962102
-1.2059462 -1.0687816  3.8537624
-1.907725  -1.0043505  3.6926415
-1.7002795 -1.0208237  3.7373383
-1.2630109 -1.0621761  3.8444958
-1.4919747 -1.0384914  3.7890508
-0.6929487 -0.9155457  3.3824513
-0.44197893 -0.90302     3.3443391
-1.770654  -1.0121831  3.7290034
-1.6144463 -1.0263432  3.768598
-1.6430712 -1.0198718  3.760869
-1.5332919 -1.0282216  3.7902927
-1.157918  -1.0591462  3.873574
-1.7981168 -0.9995492  3.72025
-1.6205314 -1.0146539  3.7622058
-1.1916213 -1.0532025  3.8669038
-1.599381  -1.0132613  3.770677
-1.2023966 -1.0496175  3.8666115
0.7647999 -1.2492203  4.398646
-1.6997594 -1.0039378  3.753223
0.7931715 -1.2411336  4.3791466
-1.8279365 -0.9907009  3.723731
-1.1866887 -1.0472139  3.8728404
-1.9312514 -0.9805958  3.7044773
-1.2744313 -1.0374167  3.8521123
-1.5779732 -1.0090716  3.7795234
-0.8036816 -0.90264    3.4159994
-1.6777829 -0.9989463  3.7617717
0.78443456 -1.2352808   4.388948
-1.8832786 -0.9780395  3.7103171
-1.9459077  -0.97225994  3.7072952
-1.6912717  -0.99244726  3.7594554
-1.726243   -0.98861575  3.7490315
-1.7024753  -0.98909825  3.7589328
-1.1708062 -1.0362251  3.8807511
-2.1112618  -0.95548654  3.6709123
-1.810663  -0.9774876  3.7296844
0.78919435 -1.2259977   4.388503
-1.7568746  -0.98032963  3.742435
-1.6309116 -0.9892347  3.7775557
0.76394844 -1.225375    4.4059176
-1.9627213 -0.9575849  3.6976185
-1.5706085 -0.9927961  3.792376
-1.1883013 -1.0255003  3.8842714
-1.2320948 -1.0186713  3.869546
-1.1994842 -1.0247197  3.8858309
-1.9725379 -0.9506344  3.7033486
-1.3880837 -1.0010219  3.84026
-1.1806334 -1.0199156  3.8872144
0.77237505 -1.2127681   4.4025807
-2.067035  -0.9427942  3.6867862
-1.8628459  -0.95664334  3.7292385
-1.5504966 -0.982912   3.8036976
-1.5158699  -0.98659146  3.8108087
-1.6421349  -0.97248834  3.7830725
-1.634023   -0.97383535  3.7882555
-1.208364  -1.0120072  3.8865066
-1.2186015 -1.008606   3.886772
-1.6790981 -0.9630836  3.7726433
-1.5599514  -0.97532505  3.8049335
-1.9268568 -0.9408469  3.7223306
-1.1907449 -1.0065398  3.8931375
-1.4374323  -0.98050004  3.8248906
-1.836664  -0.9451028  3.7435634
-1.4560329 -0.9789505  3.8312092
-1.8968885 -0.9381242  3.7358794
-1.4290172  -0.97793376  3.840675
-1.219657  -0.995902   3.8887982
-1.5888476 -0.9617516  3.808206
-1.164755  -1.0003941  3.9082732
-1.3385506  -0.98057556  3.8591912
-1.8497038 -0.9332199  3.7421002
-1.2162107  -0.99012196  3.8978643
-1.7847269  -0.93645406  3.7624004
-1.5721807  -0.95518553  3.814029
-2.0929122  -0.91459656  3.7141404
-1.5373205  -0.95616007  3.8248234
-1.8454214 -0.9273413  3.7497048
-1.440621  -0.9626723  3.8408983
-1.9767467  -0.91477406  3.7274997
-2.1186209 -0.9074091  3.7158144
-1.8456726  -0.91886806  3.7540236
-1.2142563  -0.97353923  3.9044511
-1.4979964 -0.9465781  3.8383017
-2.1309738 -0.8937197  3.7003856
-1.5091945 -0.944988   3.835704
-1.1946291 -0.9735125  3.9106297
-1.667541  -0.9289849  3.7996917
-1.2310735  -0.96792406  3.905211
-1.1860143  -0.96896213  3.9172626
-1.5333112 -0.9329555  3.8352804
-1.4384267  -0.94026893  3.859026
-1.6773576  -0.91912913  3.8118062
-1.6403127  -0.92111117  3.8174343
-2.0560536 -0.8810582  3.723219
-2.128656  -0.8743242  3.712172
-1.8829666 -0.8911634  3.761076
0.76176053 -1.1437066   4.424534
-1.8031211 -0.8952453  3.7785077
-1.5585005  -0.91449857  3.8415527
-1.853163  -0.8869939  3.7744195
-1.3704545 -0.9300128  3.8825579
-1.8208311 -0.886322   3.785676
-1.9261454  -0.87402177  3.7571783
-2.058452  -0.8630213  3.73317
-2.0108616  -0.86663896  3.751101
-1.5105798 -0.9074737  3.85814
-1.8749635 -0.8711851  3.7785652
-1.6535753 -0.8878275  3.8279448
-2.1016417 -0.847077   3.7317243
-1.6935325  -0.87802637  3.8213537
-1.4317166  -0.90092856  3.8882883
-1.7766908 -0.8672774  3.8008413
-1.9980247 -0.8454772  3.7542756
-1.397198  -0.8996514  3.8959956
-1.5561755 -0.8835266  3.8620174
-2.1342258  -0.82905644  3.7443016
-1.4005427  -0.89001036  3.8996756
-1.620687  -0.8696415  3.851393
-1.880209  -0.8434909  3.7923195
-1.4565485 -0.8814392  3.8890932
0.7630672 -1.0881635  4.4304976
-1.8219016 -0.8445497  3.807279
-2.0040503  -0.82783157  3.7678707
-1.873121  -0.8385456  3.797687
-1.6925594  -0.85445815  3.8315892
-1.6262696  -0.86219156  3.8548937
-1.5440756 -0.8691581  3.8733885
-1.2531261  -0.88900435  3.9439924
0.7654522 -1.0778904  4.4326153
-1.2447796 -0.8905833  3.948455
-1.5649666 -0.8553248  3.8744059
0.7894166 -1.0679382  4.423612
-1.7631621  -0.83545655  3.8287256
-1.5076149 -0.8580475  3.884432
0.7685486 -1.0678337  4.434283
-1.6036527  -0.84694797  3.8666532
-1.2687944 -0.8681629  3.948552
-1.5283668 -0.8455231  3.892819
-1.3857365 -0.8559797  3.9213727
0.7532025 -1.0577996  4.4482617
-1.814563   -0.81269765  3.822716
-1.5916609  -0.83460665  3.8764975
-1.583354   -0.83629096  3.8830457
-1.5682551 -0.8331752  3.8870385
-1.3600893 -0.8475871  3.935267
-1.43293   -0.8367176  3.9221354
-1.7875994 -0.8036167  3.8351226
-1.1978986 -0.8470499  3.9551673
-1.1609616 -0.8604746  3.987043
-1.353924   -0.84208906  3.942132
-1.2302135 -0.8503564  3.9682148
-1.4111431  -0.83400154  3.932508
-1.6336025 -0.8117368  3.879606
-1.7504243 -0.7959786  3.8613234
-1.2489959 -0.8395509  3.9753191
-1.2333415  -0.83933586  3.971929
-1.3973356  -0.82466805  3.9379494
-1.6275066 -0.8008861  3.8920164
-1.7663347 -0.7859863  3.852426
-1.784151  -0.7824727  3.8503697
-1.6967721 -0.7911757  3.8745959
-1.3749104  -0.82036614  3.948739
-1.7402089 -0.7858417  3.860639
1.4609557 -0.9303088  4.062089
-1.3033748 -0.8231878  3.9643261
-1.1637543  -0.83435947  3.9954755
-1.3678124  -0.81569916  3.9542503
-1.235678  -0.8283299  3.9835105
-1.8124903 -0.7717885  3.8407426
-1.6027353 -0.793519   3.89963
-1.7616262 -0.7767792  3.8603277
-1.3715361 -0.806898   3.953049
-1.5093352 -0.7945358  3.9280314
-1.3148273 -0.8070556  3.9733233
-1.6271706 -0.7782607  3.9036028
-1.4393806 -0.7949494  3.945498
-1.2804766  -0.80199564  3.9705672
-1.4104149 -0.7952139  3.948497
-1.1816498  -0.81696165  4.0110545
-1.5844111 -0.7757918  3.9162822
-1.5352637 -0.7754287  3.9288664
-1.6290243 -0.7651154  3.9085724
-1.3832978  -0.78497857  3.969293
-1.285776  -0.790545   3.9898448
-1.1896412  -0.79437125  4.0210123
-1.6448216  -0.75262296  3.9134545
-1.2101175 -0.7897791  4.014584
-1.5931503  -0.75194126  3.925802
-1.3198508  -0.77516586  3.9927025
-1.7666448 -0.7303018  3.8870082
-1.3914517 -0.7646784  3.9752877
-1.3284748  -0.77056015  3.9894
-1.2357724  -0.77882576  4.0155535
-1.2002046  -0.77889866  4.0307546
-1.3457605 -0.7620126  3.988222
-1.6343976 -0.7342061  3.9242885
-1.3347304 -0.7583915  4.0009274
-1.318392   -0.75935686  4.0002766
-1.6438226  -0.72672284  3.9238586
-1.2987237  -0.75900894  4.0089426
-1.3775553 -0.7482014  3.991047
-1.1932782 -0.7637331  4.036837
-1.6359324  -0.71663654  3.935375
-1.5973977 -0.7151561  3.9453096
-1.3519356  -0.73515207  4.007027
-1.5853245  -0.71121037  3.9539268
-1.4154071  -0.72527224  3.9918363
-1.5429449  -0.71225846  3.9650288
-1.4654433  -0.71671665  3.9796085
-1.424057  -0.7180572  3.9938347
-1.3430555 -0.7175156  4.0188055
-1.6812792  -0.68266964  3.9402192
-1.2920254 -0.7167515  4.033578
-1.451872   -0.69572854  3.9996152
-1.61472   -0.6791699  3.9587889
-1.4440142 -0.6897433  4.00517
-0.17659314 -0.59662116  3.43341
-1.4584063 -0.6783373  4.006421
-1.3981409  -0.67503333  4.029225
-1.6417809  -0.64980817  3.9661052
-1.2456478 -0.6824571  4.067502
-1.6361911 -0.6433748  3.979226
-1.53938   -0.6523732  3.9999568
-1.4759712  -0.65717787  4.019275
-1.1935549  -0.68208903  4.0877724
-1.3030361 -0.6589015  4.066436
-1.2955198 -0.6552062  4.0718274
-1.24459   -0.6541843  4.0875626
-1.6698877 -0.6120925  3.9814358
-1.4541925  -0.62721336  4.03892
-1.4856588 -0.6218103  4.0285
-1.1964515 -0.6492973  4.1058
-1.6768492 -0.6001568  3.9851525
-1.233871  -0.6346667  4.10282
-1.3009412  -0.62646526  4.0844526
-1.44771   -0.6084912  4.0482173
-1.2562684 -0.6231622  4.1011753
-1.4398988  -0.58160543  4.068329
-1.3688635  -0.58516085  4.0886364
-1.5139805 -0.5600879  4.0565624
-1.394203  -0.5664371  4.0874953
-1.4745239  -0.55285364  4.07443
-1.5514969  -0.54385805  4.0583363
-1.3122507 -0.5627064  4.1180315
-1.2127115 -0.5708799  4.142559
-1.1823683 -0.563962   4.157246
-1.3450677 -0.5451047  4.1244273
-1.4336144 -0.5022192  4.1169662
-1.4233577 -0.5014726  4.120545
-1.3363166  -0.49423295  4.151203
-1.2773623  -0.47331297  4.181234
-1.4449658 -0.4542747  4.142865
-0.5668916 -0.3455491  3.6418853
-0.5060613  -0.34309214  3.6276205
-0.4753949 -0.3379651  3.6227448
-0.46835905 -0.30586678  3.6438713
-0.14412872 -0.3050392   3.5661926
-1.5689543  -0.30022553  4.1874323
-1.4639589 -0.2994285  4.2209034
-0.5187143  -0.27213556  3.6662264
-0.5870107 -0.2616833  3.6906343
-0.45359823 -0.25067258  3.6683412
-1.4666288 -0.2171643  4.2668304
0.7354342  -0.39547786  4.595562
-1.4661098  -0.20513283  4.2715063
-0.2853208 -0.2007208  3.6600657
0.81644666 -0.37378812  4.552673
0.73678887 -0.36938664  4.6089315
0.79529124 -0.36660874  4.5670843
0.82200843 -0.35897774  4.553435
0.813769   -0.34810802  4.560178
-1.5157379  -0.15507814  4.2854567
-1.5030938  -0.15355693  4.2879486
-1.3843383  -0.15971518  4.317854
0.87563795 -0.332631    4.5281367
-1.340252  -0.1534004  4.323678
-1.3027844  -0.15261029  4.339695
-1.3153493 -0.1446688  4.345274
-0.35570472 -0.13532338  3.703781
-0.14807333 -0.04388289  3.7012572
1.5892448  -0.20188563  4.1413145
0.76074404 -0.1456469   4.5957584
-0.7764803   0.04508157  3.8556345
-0.14504954  0.02317232  3.7390091
4.2349091e-01 -1.0988768e-03  4.4406552e+00
0.8480542  -0.03142861  4.4704056
0.5846105  0.01612062 4.3951464
7.7603912e-01 3.9075026e-03 4.3959765e+00
0.56291133 0.03801968 4.356576
0.70184714 0.0562926  4.3112392
0.6929513  0.06372656 4.2974176
0.77487594 0.06683755 4.2895713
0.56426364 0.11290948 4.2219977
0.57227886 0.12220386 4.203846
0.9132496 0.1036604 4.2179637
1.11985    0.09226147 4.2167783
0.9883181  0.12858178 4.164994
0.71647173 0.1586236  4.1326575
1.1743183  0.11735834 4.1831274
1.2534853  0.11940786 4.151267
1.2685902  0.13497022 4.1190753
0.836597   0.18643987 4.0749197
1.262899   0.14882007 4.105796
0.84280235 0.19652878 4.0769577
0.65565574 0.22105278 4.023678
0.6562526 0.2294019 4.005562
1.3828518  0.17432941 4.0492635
1.3937768  0.17626566 4.0465546
0.7939535  0.25314045 3.952919
1.8687085 0.1458695 4.018332
1.8530269  0.15260807 4.0251074
1.02448    0.24800783 3.971962
1.0081446  0.25062615 3.9577105
0.18046299 0.35060441 3.3779955
1.3994694  0.24902421 3.953125
1.4497402  0.24218912 3.9448953
0.9277698  0.30059236 3.8648353
1.4454275 0.2522019 3.9282331
1.1524105 0.2832952 3.8837137
0.97359884 0.3194394  3.812346
0.96638054 0.3260743  3.8234272
1.7274036  0.26004606 3.8876574
1.0782908  0.33089906 3.8037267
1.2919636  0.30688408 3.8303757
1.716095  0.2683325 3.8660219
0.8246026  0.37042317 3.74275
1.0960393  0.35559523 3.7569244
1.3862636  0.32855943 3.7859306
1.112689   0.36242747 3.7632785
1.844293  0.2882066 3.8108728
1.8269892  0.29776698 3.81036
1.1934986  0.37317386 3.7386866
1.4321733  0.34414253 3.7579808
1.8372142 0.3006662 3.8016443
0.9547995 0.4071164 3.6655316
0.9484694  0.41212118 3.6701968
1.0639793 0.4227938 3.6378965
1.0448542 0.4292497 3.6334572
1.9500041  0.32967836 3.7445638
1.5333297  0.36785972 3.5878248
0.19563195 0.49537683 3.1069307
2.1477597  0.35584283 3.678408
1.491755   0.43341145 3.5946064
2.1705365 0.3658107 3.6916409
1.6861525  0.41572046 3.6137817
1.6938105  0.42501116 3.6227765
1.2433296 0.4705991 3.5394578
1.227791   0.47761014 3.530002
1.2381084  0.47648326 3.534805
1.6887256  0.42787084 3.5982215
-0.6579019  0.6598553  2.9285603
1.5167998  0.46340188 3.5372474
2.0820107  0.40248537 3.6117592
2.074306   0.40652567 3.6066725
2.092506   0.40576842 3.6046627
2.0912325 0.4119996 3.5979023
1.3399475  0.49741638 3.486312
2.0826416  0.41617277 3.5910745
2.069683   0.42898473 3.5675132
-0.6863754  0.7126056  2.8429306
-0.6729905  0.7123676  2.8373597
1.4697133  0.52300864 3.423578
-0.6605138   0.74409765  2.7819219
1.9489932  0.50076026 3.4452448
1.7630686 0.5209366 3.4060562
1.7811582 0.5308075 3.387112
1.3840045  0.59442246 3.2902663
1.3652579  0.59904176 3.2885427
2.0868433  0.51892424 3.3997009
1.4129201 0.6003075 3.277613
1.6041963  0.58886474 3.2899842
1.9055372 0.5631967 3.3222694
1.7280241 0.7264269 3.0187426
1.728742  0.7306806 3.0053916
-1.1806456 -1.4275916  3.658602
-0.9681632 -1.443621   3.7029407
-1.3516445 -1.4099641  3.612435
-1.092779  -1.4312382  3.6705701
-1.3299809 -1.4100962  3.6206098
-1.2564303 -1.4185236  3.6410172
-1.3674871 -1.3990008  3.6192737
-1.2340504 -1.4062419  3.6478682
-1.0931827 -1.4154779  3.680559
-1.1768048 -1.4059497  3.6637843
-1.940706  -1.3442262  3.4996054
-1.0905459 -1.4087648  3.6894999
-1.1288049 -1.3907003  3.6937373
-1.30381   -1.3718641  3.6515274
-1.3257785 -1.3702905  3.6484551
-1.2831343 -1.3730271  3.655799
-0.9659935 -1.3987865  3.7313652
-1.0963626 -1.3868048  3.7036595
-1.0710342 -1.3864458  3.7095437
-1.2517934 -1.3687894  3.665601
-1.2976542 -1.3651978  3.658351
-1.283401  -1.3569311  3.6620107
-1.1705061 -1.3669124  3.6892533
-1.1257412 -1.3694769  3.6995547
0.77867573 -1.5967448   4.31658
-1.0460534 -1.354364   3.7301645
-1.1939714 -1.3423885  3.7054334
-1.0760792 -1.3511167  3.7281075
-0.9991246 -1.3590155  3.74869
-1.2733772 -1.3332663  3.6853473
-0.9717466 -1.3565927  3.7534811
-1.0857131 -1.3421838  3.7277455
-0.98293585 -1.3505268   3.7498503
-0.97229886 -1.3488708   3.7570996
-1.1622993 -1.3246249  3.7114105
-0.54308563 -1.4382846   4.0427923
-0.53083766 -1.4230677   4.0382457
0.8439664 -1.5181569  4.291025
0.03982269 -1.3856026   3.9693904
0.8256433 -1.4755766  4.3182964
0.7632316 -1.4554303  4.358485
0.813107  -1.4093232  4.3377953
0.796766  -1.3781726  4.359174
-0.7109542 -1.0152502  3.4033434
0.81634253 -1.3151046   4.3565483
-1.7867436 -1.0535439  3.694996
-0.08126045 -0.93741965  3.3060305
-1.2931783 -1.0968978  3.8133588
-0.70304334 -0.9524419   3.3724627
-1.7513932 -1.0509208  3.7130716
-1.9970194 -1.0232852  3.6548483
-1.9120517 -1.0293825  3.676601
-1.169878  -1.0944638  3.8513432
-1.6889677 -1.0462703  3.7311738
-1.173179  -1.080895   3.8563519
-1.157189  -1.0826387  3.8640227
-0.5224784 -0.9192398  3.3533165
-0.3596119  -0.91092056  3.3207116
-1.5184834 -1.045291   3.777705
-1.7093588 -1.0244217  3.737107
-1.371702  -1.0501847  3.8175669
-1.1806481 -1.0674765  3.869978
-1.8257158 -1.0074562  3.713955
-0.2002481  -0.89071447  3.3005795
-0.7500957 -0.91362    3.3958654
-1.9652729  -0.99231637  3.684167
-0.31391686 -0.8911671   3.320415
-1.6518801 -1.015351   3.758183
0.8112223 -1.247534   4.368861
-1.359051  -1.0393114  3.8265874
-1.5539755 -1.0218229  3.7851632
-0.79313886 -0.91096115  3.4103823
-1.2401613 -1.0459543  3.8579078
-1.7055104  -0.98549795  3.7397232
-1.2048888 -1.038721   3.8706722
-1.9560646  -0.96853733  3.6894794
-1.8544389 -0.9781745  3.7189517
-1.9207486  -0.96988016  3.7032223
-1.8206939 -0.9777851  3.724032
-1.5113344  -0.99908197  3.8107314
-2.1542861 -0.943815   3.6720045
-1.6941     -0.97846675  3.757956
-1.7386034 -0.9740758  3.7620041
-1.7877338 -0.965114   3.7445724
0.7896236 -1.2107579  4.3945374
-1.8445351 -0.9607091  3.7329876
-1.8043365  -0.96261543  3.7415965
-2.004625  -0.9539747  3.7205336
-1.8910283 -0.9522717  3.7357335
-2.0605946 -0.9329267  3.6914554
-1.3959589 -0.9875791  3.8426747
-1.5188277 -0.974114   3.8180375
-1.5743787  -0.96745646  3.8052454
-1.1785072 -0.9974534  3.9047775
-1.9209344 -0.9285755  3.7278736
-1.6287572  -0.95678353  3.804348
-1.4202859 -0.9745035  3.8494096
-1.316479   -0.97731245  3.879427
-1.6092652  -0.94689107  3.80227
-1.4719858  -0.96066356  3.837708
-1.8242981 -0.9286795  3.7557533
-1.4296277 -0.9536104  3.8509212
-1.3682163  -0.95566523  3.864892
-1.7455151 -0.9140327  3.78277
-1.7218219  -0.91136146  3.797294
-1.3416579 -0.9463733  3.8886607
-1.8234344 -0.8968729  3.7714217
0.80461204 -1.1286669   4.3900585
-1.9389031  -0.88100237  3.74677
-1.8800468  -0.87683475  3.7685058
-1.9542783  -0.86760604  3.7528622
-1.7703345 -0.8825362  3.786501
-1.7610888 -0.8792033  3.8009536
-1.63884   -0.8846636  3.8319707
-1.1946223 -0.9262667  3.9432673
-1.851003   -0.86407316  3.7833529
-1.9215565  -0.85559857  3.7685442
-1.2551501  -0.91486585  3.928856
-1.9682822 -0.8506987  3.760767
-1.8736707 -0.8584751  3.7873206
-1.816639  -0.8651677  3.8064373
-1.7529833 -0.8677658  3.81308
-2.028396  -0.8414863  3.7544115
-1.6049087 -0.8798994  3.8497355
-1.9072025 -0.8475299  3.776712
-1.8746419  -0.84868675  3.7932389
-1.3854823 -0.8921862  3.9044993
-1.1923852 -0.9046726  3.949191
-1.2637608 -0.8958794  3.935605
-1.4998363  -0.86992353  3.8835058
-1.7176342 -0.8475025  3.8335652
-2.0010998  -0.81843716  3.7704248
-1.8781137 -0.8265512  3.7966707
-0.17413734 -0.746511    3.3664608
-1.5416086 -0.8577248  3.886799
-1.351457   -0.87114275  3.9223166
-1.288866  -0.8771527  3.9389632
-1.2017473  -0.88628364  3.9586155
0.76001036 -1.0624326   4.442136
-1.6876396 -0.8337283  3.8492122
-1.2573919  -0.87183416  3.9519503
-1.89146   -0.8115908  3.8053782
-1.3533678 -0.8583285  3.9323864
-0.15592557 -0.72963     3.3669748
-1.8434138 -0.8079232  3.8153634
-1.8633451  -0.79162115  3.8192139
-1.8128977 -0.7953181  3.8333583
-1.8529413 -0.7890185  3.8298965
-1.456723  -0.8258521  3.9223065
-1.7969675  -0.79297477  3.837923
-1.6134338 -0.802653   3.891703
-0.7229867 -0.7205546  3.4975302
-1.8044541  -0.77773696  3.8506863
-0.6714382 -0.7137432  3.4836576
1.1931462 -0.9574521  4.212288
-1.6713536 -0.780084   3.889204
-1.247587   -0.81692874  3.9891171
-1.6035236  -0.78246385  3.912981
-1.238867   -0.81117356  3.996149
-1.568773   -0.78011763  3.9133406
0.72413105 -0.99560505  4.483304
-1.2995207 -0.8008895  3.9828105
-1.4231527 -0.7869446  3.9501846
-1.7504015 -0.7571966  3.8744378
-1.6826468  -0.76332426  3.8945181
-1.2188011  -0.80504286  4.0029235
-1.1861908 -0.8049439  4.0174828
0.7770801  -0.97971845  4.4573665
1.3847544  -0.90873426  4.1099086
-1.6939486  -0.75673485  3.890476
-1.4888617 -0.775863   3.9480548
-1.4561205  -0.77345884  3.958117
-1.254804  -0.792742   4.0064797
-1.3064922 -0.7838626  3.9824653
-0.72248155 -0.6823326   3.5119321
-1.6857193  -0.74641705  3.9023137
-1.6775262  -0.73592335  3.9092188
-1.2451156  -0.77582467  4.01394
-1.5664755 -0.746575   3.9455597
-1.7493392 -0.7228325  3.8975227
-0.47814468 -0.6572122   3.4749908
-1.2560778 -0.7631964  4.019486
-1.446677  -0.736395   3.9736516
-1.2713019 -0.7491666  4.0178
-1.6351743  -0.70640814  3.9372268
-1.3048568 -0.7363016  4.0201235
-1.1774552 -0.7448319  4.0541983
-1.4926809 -0.7136959  3.9758298
-1.4529285 -0.7097707  3.993712
-1.2893317  -0.72520435  4.0341773
-1.2563894 -0.7260848  4.038885
-1.2277191  -0.72692174  4.049029
-1.4339626  -0.70659196  4.004562
-1.2423124  -0.72174615  4.048746
-1.5443643 -0.6907903  3.9747126
-1.6625829 -0.6750983  3.9455392
-1.226156   -0.71297854  4.057892
-1.534646   -0.68319637  3.9880662
-1.4826108 -0.6873505  3.9941669
-0.6769217 -0.6031405  3.5418258
-1.7290341 -0.6555905  3.9462938
-1.3386999 -0.6911564  4.0338626
-1.5407369 -0.669383   3.9887495
-1.283486 -0.695346  4.050684
-1.2217093 -0.6999888  4.0655384
-1.4691874 -0.6753457  4.003686
-1.3142208 -0.6852806  4.0772486
-1.4837743 -0.6608688  4.009262
-1.2753623  -0.67782426  4.068084
-1.6668283 -0.639474   3.965959
-1.5177214 -0.6512556  4.0078406
-0.16846898 -0.5762149   3.4455917
-1.494808  -0.6508444  4.006585
-1.30957   -0.6661538  4.062234
-1.6057575 -0.6337752  3.992645
-1.4311157 -0.6506529  4.033822
-0.72763556 -0.57183576  3.5713792
-1.4406655 -0.6363064  4.0339575
-1.3164755 -0.6477952  4.068622
-1.3643796 -0.6400343  4.0596676
-1.6586336 -0.610832   3.9875338
-1.6346633 -0.6124075  4.0032964
-1.5746417  -0.61710036  4.0092573
-1.2786801 -0.6447369  4.0857363
-1.6919302 -0.6031254  3.9803631
-1.6674414  -0.59741664  3.99123
-1.6898292 -0.587289   3.9854498
-1.6356158 -0.5940515  4.0077467
-1.4216917 -0.6113265  4.0531926
-1.6004016  -0.59391856  4.0143666
-1.2167815  -0.62884325  4.110499
-1.584469  -0.5918012  4.0219307
-1.5255643 -0.5877553  4.0367727
-1.4310143  -0.59375525  4.060273
-1.3036997  -0.60425836  4.094808
-1.5380441 -0.576524   4.0433702
1.1472666 -0.7435204  4.283711
-0.17112198 -0.49066213  3.3535078
-1.501962  -0.5722358  4.051197
-1.590427   -0.55518156  4.0361915
-1.4430418  -0.56930757  4.0734816
-1.4812634  -0.56197864  4.0669403
-1.4198204  -0.56790996  4.081322
-0.18763521 -0.4742394   3.3492982
-1.3285161 -0.5709878  4.1059265
-0.19935456 -0.46658215  3.343252
-1.4612536  -0.55192316  4.079568
-1.5374402 -0.5418734  4.060379
-1.2502632 -0.5707351  4.13175
-1.2317467  -0.56609935  4.1461325
-1.5911757  -0.52867156  4.055434
-1.6031609 -0.525623   4.0427575
-1.3339218 -0.5543925  4.1290174
-1.3610396 -0.5414899  4.1132984
-1.4510906  -0.52968895  4.100515
-1.2340158 -0.5493915  4.1505218
-1.5224814 -0.5165754  4.0842505
-1.3511399  -0.53056717  4.125909
-1.498574   -0.51324904  4.09482
-1.226455  -0.5389806  4.1606264
-1.2713268  -0.52989066  4.15121
-1.3819504  -0.49537116  4.132946
-0.34846696 -0.44075975  3.5627317
-1.4941789  -0.47624326  4.117534
-1.4043164  -0.48349166  4.1362267
-1.2795299  -0.49292594  4.17121
-1.4768323  -0.47256368  4.1166053
-1.2697654  -0.48610526  4.1758957
-1.4494761  -0.46432927  4.1370287
-1.455584  -0.4498942  4.1382647
-1.4225767  -0.44734704  4.151082
-1.5535018  -0.42731708  4.1210675
1.5293479 -0.5629386  4.122074
-0.30361265 -0.329369    3.5987864
1.6305561  -0.50648886  4.054276
1.6512975  -0.49751502  4.042119
-0.7874956  -0.27892965  3.5660174
-0.4941672  -0.30573466  3.6524453
-1.5396087  -0.30180797  4.2005315
-1.344167   -0.31473264  4.223792
1.4253435  -0.47052902  4.1829762
-1.4025817  -0.29145312  4.2494154
-1.5117364  -0.27808022  4.2238526
-1.4018646 -0.2768245  4.254591
-1.4767619 -0.2568465  4.241806
-1.5150247  -0.23101528  4.2519965
-1.4040084  -0.23541902  4.2779217
1.636428   -0.40741542  4.072476
-1.4689986  -0.20971006  4.2718606
1.6386045 -0.3923967  4.070079
-1.4358653  -0.20984988  4.285877
-1.2976474  -0.22132881  4.3046284
0.6688244  -0.38686073  4.6503096
-0.29367602 -0.19480756  3.6638703
-1.3922782 -0.1660955  4.3124323
-1.4635447  -0.15881963  4.2969003
-1.3105446  -0.17236711  4.3269653
-1.4155279  -0.16042104  4.3092895
-1.2924844  -0.17087096  4.331973
-1.4785345  -0.14682604  4.3008037
-1.4526707  -0.14952916  4.3061748
1.3651155  -0.33976558  4.2392516
-1.343184   -0.15694694  4.3274283
-1.2098311  -0.16819388  4.3519087
-1.2274724  -0.16512696  4.347542
1.6404456  -0.34021077  4.080809
-1.392961   -0.14663723  4.322386
-1.4351981 -0.1399598  4.3132143
-1.2530828 -0.1559441  4.3476434
-1.2716057  -0.15270166  4.346665
-1.2936753  -0.14968696  4.343473
-1.3367248  -0.14313644  4.3380218
-1.2631953  -0.14242527  4.3528166
1.3128362 -0.3018954  4.291539
-1.4754938  -0.08704926  4.325736
1.3110006  -0.27848512  4.3009815
-0.31252778 -0.06682169  3.7348511
1.7085681  -0.23951086  4.063868
-0.14359702 -0.05558544  3.6944585
1.4592268 -0.1447573  4.2212467
0.8501214  -0.10526701  4.571679
1.4772246  -0.14048369  4.2129397
1.8395538  -0.13722087  3.9794881
-0.2294996   0.05833289  3.7537801
-0.53941965  0.11867759  3.856887
0.47404495 0.0140915  4.4138517
-1.1843497   0.21234314  2.9722636
0.91283566 -0.01847975  4.4318643
7.9289114e-01 3.4270834e-03 4.4066210e+00
2.066903  -0.0804989  3.884001
0.89031136 0.0239084  4.346321
0.7258519 0.0538349 4.3200274
0.9374404  0.05436601 4.282958
-0.3132261   0.18996915  3.8599699
1.0230289  0.06073661 4.272729
-0.16573378  0.19357544  3.8142023
0.9005263  0.10432222 4.2426167
-0.17693818  0.21492729  3.826224
1.1361833  0.08961676 4.215664
-0.8892433   0.31897318  4.0401325
1.2332363 0.112532  4.165542
1.2331007  0.12569623 4.1251693
1.2506905 0.138813  4.121732
-0.8594111   0.40616003  4.089962
0.687873   0.24686691 3.975149
0.7982417  0.26271024 3.9399588
1.3136631  0.21357307 4.0024767
1.4778712  0.20031287 3.998957
1.1238606  0.25232297 3.9569812
1.5908056  0.20892607 3.9755604
1.5896448  0.22954327 3.9401612
-0.01241375  0.3801089   3.3371336
-1.4202548  0.5370629  3.0790446
0.97616005 0.32309526 3.8485036
-0.17884754  0.43338647  3.2627637
-1.2427477  0.5397495  3.0131416
-0.14148769  0.4347691   3.2574892
1.5283757  0.28406304 3.8600183
-0.20816882  0.44264036  3.247075
-0.19159286  0.45127428  3.2209857
1.8184633  0.27802154 3.8495157
-0.10216795  0.45947948  3.2049105
0.10890466 0.43690822 3.216352
1.1011786 0.363849  3.750365
1.1240398  0.36414343 3.7573054
1.8323339  0.28528604 3.8181489
1.8161335 0.2887226 3.818231
-0.18197642  0.4759842   3.1843526
-1.0927378   0.57212365  3.000287
1.2136155  0.36042327 3.7374005
1.129212  0.3767236 3.7469382
-1.145747    0.58105016  3.005716
0.21529748 0.44395784 3.1868877
1.1365726 0.3833733 3.7334425
-0.0844247  0.4873656  3.1603532
1.0846491 0.4013211 3.7147794
-1.405858   0.6554202  3.155584
0.2772946  0.45986196 3.1604788
-0.10242623  0.5016855   3.12674
-0.03239194  0.5026391   3.128703
1.0447216  0.42096663 3.6440077
1.949037   0.32527438 3.7682793
1.808332   0.34495533 3.7629547
-0.11534156  0.51324403  3.1130106
-0.10003333  0.51867646  3.106288
1.3497522  0.40091676 3.6631296
-0.01406311  0.51660275  3.1050165
0.1793508  0.49399495 3.10195
0.16459626 0.5000887  3.091195
-0.07627646  0.53851986  3.0595274
0.01506316 0.5302605  3.058702
-0.02681479  0.5367226   3.0600512
-0.03287508  0.5459787   3.0407424
-0.6956713   0.62870425  2.9926963
1.1867459  0.45781916 3.5657732
-0.68908006  0.63627183  2.9842286
1.965643   0.38490707 3.6593206
-0.7537026   0.65070724  2.9582238
1.4683757 0.4435197 3.579523
-0.783595    0.66208917  2.9452102
-0.74556893  0.66047394  2.9484713
0.06175861 0.5731971  2.9836392
0.0216824  0.58014554 2.9701254
1.3368908  0.48256126 3.5055673
1.5083376 0.4678054 3.536803
0.0120781  0.59085214 2.9542103
0.04546224 0.58819366 2.9670444
0.08093558 0.5839526  2.958069
-0.66945934  0.6748635   2.9046102
1.3263981 0.4928434 3.4916592
2.0828938  0.40900165 3.602142
-0.6706989  0.6832836  2.897657
-0.72703373  0.7009151   2.8705044
1.360375   0.50802785 3.4652126
1.3695579 0.5105926 3.4554076
0.76702625 0.5327577  2.9940052
0.8006962  0.54321563 3.0093818
-0.60073775  0.7023874   2.8433056
0.67474455 0.5551686  2.9678116
-0.69253576  0.7199758   2.8249767
0.13233878 0.6237538  2.8973074
0.80709434 0.5439483  2.971253
0.65721476 0.5719282  2.939334
0.81275266 0.55615246 2.945046
1.4960334  0.53636545 3.3956769
0.63619435 0.5804602  2.9148927
0.57812595 0.59038365 2.889406
0.62224454 0.58173954 2.8755271
0.16362047 0.64921176 2.8461204
0.41503692 0.61661756 2.8670113
1.4764025  0.55118716 3.3675694
0.22427629 0.64190894 2.8476853
0.28387314 0.64098436 2.8391113
1.4946007  0.55636805 3.36001
0.8438238  0.57559335 2.9218593
0.44939053 0.62851477 2.8480153
0.56584597 0.61519593 2.8525836
-0.55624086  0.7554786   2.7448688
0.45964068 0.62756044 2.833283
1.5981171  0.56003374 3.3429153
-0.5434293   0.75933206  2.7385268
0.37563008 0.64611554 2.824483
0.7122535  0.61084056 2.8580515
-0.49592465  0.7575036   2.7265446
0.3551158  0.65493727 2.8134246
1.3993626  0.59300065 3.2860317
0.36591637 0.6592636  2.8102593
-0.5310497  0.7714263  2.708309
1.6288778 0.5740854 3.3199196
-0.57256126  0.7796842   2.7043288
0.22747229 0.67810667 2.7780106
0.6159637  0.63364136 2.8255782
1.419809   0.59862006 3.273231
1.3894536 0.6080922 3.273458
0.3576388  0.67573714 2.7759752
0.42429274 0.6663996  2.7760305
1.6231258  0.58874935 3.291423
0.81951314 0.6227011  2.8061547
1.7422667  0.58270735 3.2917292
1.8984865  0.56952655 3.3120804
0.18217435 0.71323013 2.7279665
0.7745215  0.63652456 2.7840526
0.653852   0.65350795 2.7777421
1.9120724 0.572738  3.3071012
1.7234063 0.5976281 3.2676103
1.7088934 0.6000373 3.2607272
0.6865424 0.6591674 2.762831
1.523667  0.6240026 3.2178679
0.38582036 0.69488686 2.7264154
1.5027705  0.63221776 3.2143087
-0.968029   0.8791862  2.5947049
1.7854826 0.6116068 3.261454
0.639136   0.68226695 2.735783
0.35833466 0.71915895 2.682831
1.7475476 0.6289948 3.2262325
0.43195096 0.7141719  2.6966639
0.34909317 0.72732675 2.6803818
0.5145219 0.7077474 2.7039058
0.2676853 0.7480272 2.6472592
0.33944246 0.74534035 2.6539934
0.38154578 0.75661516 2.611509
0.64946103 0.7691656  2.5611556
-1.4871739  -0.91095215  3.860763
-1.4190968  -0.21123905  4.280524
0.8004967  -0.36836258  4.5661354
-2.0009713 -1.3601272  3.4798267
-1.0958679 -1.4326482  3.6765265
-1.1562414 -1.4271498  3.663952
-1.921463  -1.3555183  3.4900236
-1.302921  -1.4064566  3.6316986
-1.2612469 -1.4954093  3.9924276
-1.0425347 -1.4269302  3.6907935
-0.99067116 -1.4328693   3.7014086
-1.3648319 -1.3980107  3.6139462
-1.2305028 -1.4105983  3.6486351
-1.8909396 -1.3579617  3.5096788
-0.9669002 -1.4269853  3.7103724
-1.3284781 -1.3947304  3.6286707
-1.1541557 -1.4100552  3.6668968
-1.971484  -1.3358074  3.4942741
-1.34291   -1.3860656  3.6316495
-1.0496386 -1.4129916  3.7033167
-1.9884404 -1.328678   3.4935303
-1.1136019 -1.3990607  3.6864958
-1.8696454 -1.3374412  3.5263228
-1.0835782 -1.400035   3.6984777
-1.9562924 -1.3292018  3.5150375
-1.7922436 -1.3390137  3.540059
-1.1894977 -1.3883561  3.6712751
-1.2295504 -1.379326   3.6697526
-1.2843279 -1.3728098  3.6588702
-1.1825203 -1.3841602  3.6897671
-1.1001341 -1.3830647  3.7037923
-1.071146  -1.3858873  3.708824
-1.0169578 -1.3895035  3.7197573
-0.9706391 -1.3933091  3.7297974
-2.015386  -1.303841   3.4966564
-1.2564538 -1.3532238  3.6763177
-1.2091045 -1.3574824  3.6902757
-1.0067248 -1.3645357  3.7387254
-1.2531552 -1.3415451  3.6837382
-1.2718368 -1.332402   3.6848638
-1.0206167 -1.354438   3.7429152
-1.2174888 -1.3169951  3.7112136
0.8425    -1.5205514  4.292028
0.79393744 -1.520825    4.323704
0.76848507 -1.4794046   4.352453
0.76513344 -1.4519311   4.358115
0.81338376 -1.4083784   4.3365993
0.79942524 -1.3754889   4.3527393
-0.71150863 -1.0120924   3.3967094
-1.7537935 -1.0674765  3.695623
0.81315124 -1.3142606   4.3519363
-1.8113453 -1.0510302  3.6873121
-2.0694761 -1.0293324  3.6403432
-1.2366054 -1.094962   3.8268864
-1.2047936 -1.0975991  3.8370576
-1.6810426 -1.055834   3.7280748
-1.3102207 -1.0842813  3.802908
-1.6726301 -1.0646522  3.7614756
-2.1395514 -1.0149436  3.638338
-1.172234  -1.0957357  3.8512568
-0.71504974 -0.9408834   3.3769693
-0.7045014 -0.9321612  3.3820856
-1.8871901 -1.0145617  3.689435
-0.6396612 -0.9222586  3.371618
-2.1298275  -0.99515367  3.6470714
-1.3131247 -1.0618093  3.8305213
-0.27515778 -0.8981059   3.3066957
-1.9101896 -0.998857   3.6936495
-1.7549465 -1.0139449  3.7324162
0.76546675 -1.2625259   4.3995824
0.80939853 -1.2480037   4.369516
-1.8680066  -0.99156266  3.7127678
-1.3228129 -1.0385194  3.8360353
-0.26960608 -0.8853561   3.316629
-1.9417851 -0.9833777  3.695641
-2.0830832  -0.97035193  3.6567402
-1.8328197  -0.98701894  3.7166202
-1.7252983  -0.99577075  3.7427084
-1.6292983 -1.0021092  3.7769759
-0.28109604 -0.87554365  3.3244486
-1.9852607 -0.9691898  3.6917088
-1.9687766  -0.97048557  3.6994991
-1.7662501 -0.9829268  3.7438822
-1.8218086 -0.9765201  3.723073
-0.37589884 -0.87233555  3.3420916
-2.0825465  -0.94257355  3.6827564
-1.9639486  -0.95562214  3.7198439
-1.6222076 -0.9769316  3.8055975
-1.4134585 -0.9882976  3.8362136
0.8039612 -1.197772   4.3826246
-2.1193852  -0.92560065  3.6964805
-1.9816035  -0.93430376  3.716458
-1.8209713 -0.9456796  3.7534673
-2.0554254 -0.9229908  3.7027693
-1.922421  -0.9130039  3.59613
-1.9769185 -0.9260233  3.7318745
-1.2937402  -0.98229223  3.8781748
-2.025895  -0.9150168  3.714617
-1.7192055 -0.9401367  3.7895265
-1.9940975 -0.9126674  3.731648
-1.9495704  -0.91225487  3.7232747
-1.5359235 -0.9497367  3.8383284
-2.0635564 -0.8946691  3.725096
-2.0198495  -0.89692974  3.7230642
-1.5675805  -0.93626887  3.828857
-1.9259417 -0.9037795  3.760724
-1.6177008  -0.92731065  3.8297431
-1.7891701 -0.9065125  3.7809083
-1.8555559 -0.9000558  3.7679996
-0.08145588 -0.7988318   3.3147924
-2.08216   -0.8736875  3.7215695
0.8024332 -1.1315999  4.4015512
-1.7678334 -0.8953095  3.7990038
-1.5265107 -0.9033214  3.8534715
0.7288176 -1.121651   4.441298
-1.6424133 -0.8864671  3.8311603
-1.9270911  -0.85602415  3.7762668
-1.6043928 -0.8810357  3.8480263
-1.9109653  -0.84398955  3.7819395
-1.6698112 -0.8514202  3.8417614
-1.6447649 -0.8422624  3.8613868
-1.6905837  -0.83545667  3.8553689
-1.4609647 -0.8555891  3.9005604
-1.600254  -0.8270925  3.8796961
-0.1449405 -0.6899965  3.3040335
-1.8176649  -0.79695624  3.8454907
-1.7754836 -0.7961602  3.8514493
-1.2017305 -0.8388908  3.9908967
-1.2399168 -0.8304272  3.982745
0.71521443 -1.0164996   4.495448
-1.2120354  -0.82597077  3.9949462
-1.7361703  -0.77756965  3.8739278
-1.6744982  -0.77960783  3.8920062
1.3830825 -0.9105789  4.111556
-1.4660823 -0.7790457  3.9463706
-1.6465343  -0.76165086  3.905501
0.7110781  -0.98213553  4.4887996
-1.3564286 -0.7839865  3.9774706
-1.4540776 -0.7719625  3.955182
-1.6916237  -0.74762046  3.9145648
-0.5132377 -0.6731608  3.4820776
-1.6777799  -0.73678386  3.90832
-1.4738951  -0.75147015  3.9575462
-1.3823425 -0.7614943  3.9894452
-1.4403812 -0.7522099  3.9660342
-1.2549431  -0.76298034  4.0202646
-1.220608  -0.7636912  4.0274196
-1.6785808  -0.71785593  3.9210467
-1.419687  -0.7386675  3.9833405
-1.2725849 -0.7495583  4.021345
-1.6354964 -0.7084715  3.9366806
0.02490286 -0.7447482   3.871364
-1.7033155 -0.6933101  3.9346168
-1.3034701 -0.7230922  4.0243425
-1.58845    -0.69689715  3.9507482
-1.5635185 -0.6890398  3.9691782
-1.6642458  -0.67074144  3.9533293
-1.688266   -0.65799665  3.946249
-1.5985248 -0.6653055  3.9704232
-1.650169   -0.65637493  3.9638433
-1.5156618 -0.6691828  3.9964876
-1.6303533  -0.65140384  3.97585
-1.569304  -0.6566795  3.9833124
-1.6713473  -0.63729465  3.9685938
-1.4281628 -0.6497903  4.031597
-1.6054746 -0.6347008  3.9937625
-1.6459168  -0.62799305  3.9819703
-1.5148709 -0.6339188  4.0154066
-1.6092763  -0.61818016  4.0011168
-1.3631791  -0.64005053  4.062377
-1.5737717 -0.6154907  4.0083766
-1.631218   -0.61133194  4.007666
-1.2037208 -0.6446059  4.1070175
-1.6713449  -0.57740676  3.9157982
-1.6344733 -0.5928932  4.0064607
-1.601519   -0.59559095  4.019177
-1.5841014  -0.58850443  4.014051
-1.5254265  -0.58691895  4.0378695
-1.3039994  -0.60609126  4.090294
-0.2038009  -0.49548098  3.3422604
0.02128189 -0.6207555   3.9412303
-1.5895058  -0.55610615  4.0361357
-1.5205129  -0.54246515  4.0690417
-1.252178   -0.56788266  4.1373367
-1.6106613 -0.5242098  4.0517097
-1.3597692 -0.5406682  4.110158
-1.2942615  -0.55034983  4.1380386
-1.5430554 -0.5181351  4.0751543
-1.5207368  -0.51563364  4.085592
-1.4996088  -0.51226306  4.096111
-1.2253206 -0.5367931  4.161994
-1.5818889 -0.5019304  4.06882
-1.5160419 -0.5007532  4.094292
-1.4768959  -0.47192273  4.1082816
-1.5502656  -0.45438907  4.1150846
-1.5666872  -0.44513437  4.1082377
-1.3648729  -0.46019748  4.1677394
-1.5163083  -0.44074824  4.127323
-1.4233612  -0.44494462  4.1545954
-1.495791  -0.4364787  4.138952
-1.5569278  -0.42792523  4.1244464
-0.769194   -0.34658182  3.6616836
-0.777803  -0.3323211  3.6476808
-0.5315146  -0.34315228  3.6356227
-0.7594175 -0.3290314  3.6605196
1.6403872 -0.5203697  4.043388
1.6650271  -0.51271087  4.0320525
1.6303251 -0.506032   4.0545936
-0.3268561 -0.32154    3.601419
1.6515489  -0.49731946  4.0423203
-0.49032292 -0.3058141   3.6451437
-1.4677645 -0.3047591  4.2181015
-1.350188   -0.31322193  4.2350883
1.424527   -0.46834886  4.1796308
-1.509626   -0.27797142  4.2242126
-1.3767468  -0.28542784  4.249872
1.4554762  -0.43996406  4.183873
-0.298487   -0.25253293  3.6314926
-1.3537889  -0.26508722  4.271575
-1.2810264  -0.25297463  4.299104
1.6370665  -0.40965095  4.0738726
-1.401512   -0.23365352  4.27813
-1.4699085 -0.2105635  4.26845
-1.426631   -0.21233119  4.281842
-0.30985656 -0.21220121  3.661117
-0.23929217 -0.20471968  3.631829
0.7005752 -0.3643909  4.6280656
0.7181598  -0.35967544  4.613369
-0.5616727 -0.1562453  3.5871623
0.8102341  -0.35383007  4.5637136
1.2800386 -0.347823   4.285525
-1.4637465  -0.15861301  4.2970757
-1.4354612  -0.14269179  4.3132997
0.8502241  -0.32496572  4.5491714
-1.371697   -0.14030662  4.3269873
-1.0632302  -0.04796161  3.4306726
-0.3083014  -0.06586663  3.7261593
-0.293473   -0.06173657  3.7307339
-0.16046225 -0.040033    3.6876597
1.635448   -0.18228367  4.1209083
1.8862028  -0.13140398  3.9831135
-1.4927938   0.21773796  3.0122862
1.6829072  -0.08950505  4.1022696
0.47659564 0.0128333  4.4125886
-1.1855907   0.21207759  2.972717
-0.2615214   0.12206229  3.8202095
-0.8361839   0.19796164  3.9832222
1.4652817  0.00458301 4.2269254
-0.30698004  0.19118088  3.850303
0.55563015 0.11316374 4.225679
0.5797676  0.13593076 4.193461
-0.1757826   0.21325217  3.8189974
-0.889836    0.31662947  4.040597
0.7492397  0.16007972 4.1513195
0.9801047  0.14678949 4.159864
0.7195924 0.1724355 4.119848
1.0386513  0.14412291 4.14061
1.2480544  0.14083408 4.12744
1.1364889  0.16595028 4.11611
0.87847686 0.20624205 4.036046
-0.8580519   0.40536427  4.092925
1.8678956 0.1541341 4.041095
1.0129818  0.24237442 3.9660993
1.4799411  0.20093054 3.9939578
1.359333   0.22531918 3.9983413
-1.079111   0.4527826  3.0130105
1.4036831  0.23364396 3.9682744
0.928905  0.2915535 3.8754606
-1.0755091  0.47236    3.0188413
-0.97249436  0.4661527   3.1172297
0.18926904 0.35457265 3.3546875
0.04847889 0.3760035  3.3373308
-0.9860027   0.49826685  3.1384344
1.4192629  0.27471063 3.8893852
1.7166698  0.24122354 3.908146
-1.3452302   0.57744735  3.1013741
1.5269018  0.28433558 3.8609736
-1.0415812  0.5322562  3.0193236
0.20789114 0.4090846  3.2464037
0.05464198 0.43259105 3.2373972
1.127702  0.3626192 3.7597232
-0.16330348  0.47600287  3.2009406
-1.0936139   0.57393587  3.0007594
-1.1875093  0.5928147  3.0112662
0.95350814 0.40370408 3.6814816
-0.06881596  0.48077485  3.1575096
1.9412532  0.30090964 3.7899823
0.29161835 0.4564991  3.1568875
1.0370319  0.42901874 3.6340692
1.0605416 0.4251913 3.633045
-0.02796653  0.53886485  3.063403
1.369007  0.4265256 3.6230993
0.02249886 0.54109615 3.0230553
5.1523629e-04 5.4671168e-01 3.0431228e+00
1.1992811  0.45953685 3.5629976
0.05573855 0.55928063 3.0199087
1.9478732 0.3910015 3.6408503
1.697269   0.42265877 3.6011593
1.5207758  0.45797703 3.5427055
1.3261923 0.4809499 3.5148866
0.01271186 0.5880289  2.9484866
1.4629031 0.5153578 3.437766
1.4631099 0.529308  3.4100165
0.64615136 0.5779619  2.9399853
1.478762   0.54266644 3.3837311
1.954092  0.4988364 3.4441257
0.57141465 0.59947526 2.8769975
0.13807452 0.6528749  2.8253984
0.8432927  0.56984043 2.8865564
0.16535145 0.6577806  2.826325
0.7878852 0.5893637 2.891563
1.6062559 0.5531166 3.3609633
0.39187515 0.63333404 2.8224998
0.47497874 0.6281426  2.8468237
0.49092376 0.6219532  2.8376968
0.3263    0.6477496 2.8105416
0.37616345 0.6460076  2.8243053
1.3828295 0.5870754 3.2950687
0.46346343 0.63895977 2.8258073
1.3745637 0.5977713 3.3105812
0.37841254 0.65277565 2.8059175
0.42983574 0.64523196 2.8026927
1.3917186  0.60263526 3.2986462
-0.5324238  0.7708671  2.7077541
0.3340131  0.66376233 2.790323
1.8863182  0.54351026 3.361304
0.6154782  0.62878853 2.815629
0.5365745 0.6431421 2.8130784
-0.5561525   0.77876955  2.6974263
1.6037108 0.5805535 3.2994552
1.3888773 0.6091746 3.274334
-0.592716   0.793886   2.6787434
1.6215285 0.5884224 3.2912464
0.3571043 0.6740565 2.7685032
1.6359594  0.58757025 3.2942047
0.38464627 0.6726461  2.7636664
0.22115932 0.6979666  2.7292156
0.35909814 0.6826046  2.748609
0.5838258 0.6579156 2.778664
0.25196344 0.70052296 2.7407467
0.5185185 0.6686645 2.7526972
1.7373612 0.5931587 3.2777588
0.6560483 0.6582797 2.7869291
0.5677929 0.6683467 2.7630424
1.7095497 0.5993891 3.259309
0.6179111  0.66710865 2.764034
1.5301609 0.6290804 3.2361946
0.65124124 0.66225916 2.7418191
1.5019933 0.6336344 3.2146134
1.5191944  0.64394987 3.22112
1.7806867 0.6083389 3.24927
0.63846934 0.67823637 2.7283585
1.5503966 0.6411011 3.1930847
0.65423965 0.68365633 2.7371511
0.61366516 0.685588   2.7170928
0.30437967 0.73188436 2.685435
0.6603801  0.69524527 2.7097428
0.26783752 0.7508014  2.653863
0.31363037 0.74534494 2.6455567
0.3392631  0.74476886 2.6533678
1.1704797  0.65261865 2.7844238
0.40004852 0.7404323  2.6422777
-0.90094656  0.92218465  2.5124328
-0.27877346  0.8368521   2.5620606
0.5656172 0.7275928 2.654383
0.2969879 0.7657027 2.622673
0.6571588  0.72063285 2.648214
0.6599578  0.74423695 2.6079645
1.7990596  0.68123853 3.091445
1.7910392 0.6921193 3.0798144
1.1769992 0.7408858 2.8761952
1.817633  0.6962312 3.0771573
0.4246705 0.7937017 2.5416431
0.41105157 0.79642195 2.5383139
0.62694114 0.77916825 2.562062
-1.2259475 -1.4155252  3.6493952
-1.3324254 -1.4025137  3.6232963
-1.2582846 -1.4091023  3.6426551
-0.96948403 -1.4350059   3.7058134
-1.3666782 -1.4010339  3.6234703
-1.1415583 -1.4034388  3.6801357
-1.0517365 -1.413089   3.718637
-1.2132076 -1.38877    3.6711144
-1.0815879 -1.399056   3.6980839
-0.97005284 -1.3948183   3.7339735
-1.9737153 -1.3080555  3.5049431
-1.0114375 -1.3907244  3.7238994
-1.3410401 -1.3678653  3.67989
-1.170945  -1.3614295  3.695603
-1.0860295 -1.368585   3.7118168
-0.99108285 -1.3773358   3.7335536
-1.2597938 -1.351794   3.6770818
-1.2062706 -1.3512405  3.6964262
-1.0409133 -1.3609059  3.7212157
0.7843807 -1.5906094  4.3188663
-1.2541186 -1.3418769  3.6862388
-0.9709957 -1.3526196  3.7560863
-1.1902738 -1.3332342  3.7163308
-1.1579221 -1.3316587  3.71256
0.7740049 -1.4846867  4.349069
0.76930577 -1.4458787   4.3602324
0.8158452 -1.4048135  4.3394556
0.7672748 -1.4093442  4.366636
0.79897416 -1.3726244   4.349169
0.7658496 -1.3656341  4.376501
-1.359561  -1.0699272  3.807822
-0.6578027 -0.9261216  3.390285
0.77251107 -1.2578688   4.402669
0.80504483 -1.2478448   4.3721166
-1.5803751 -1.0169263  3.7742972
-1.6238072 -1.0003451  3.7648118
-1.9478302  -0.95243996  3.6930327
-1.8577138 -0.9569923  3.7248783
-1.597983  -0.9807136  3.784128
-2.0540519 -0.9236765  3.701367
-1.9963019 -0.9255752  3.702148
0.73776025 -1.1755235   4.435004
-1.5320766  -0.94706106  3.8363764
-1.4512439  -0.95150614  3.8532429
-2.0230663 -0.8984271  3.7178578
-1.3376153  -0.94006926  3.8954597
-1.8718736 -0.8873485  3.7706876
-1.814436   -0.87222385  3.78889
-1.8424712 -0.8667326  3.7839625
0.78654045 -1.0876652   4.4150615
-1.5325391  -0.87653863  3.881114
-1.7170875 -0.8202145  3.8594048
-1.4805416 -0.821033   3.9030242
-1.3876288  -0.83089304  3.9385035
-0.5505321  -0.72130334  3.46243
-1.7032619 -0.7977481  3.8699594
-0.50186044 -0.71574086  3.4538488
-1.6508554 -0.7953299  3.8954806
-0.15879704 -0.69119054  3.3759375
-1.4706422  -0.79504406  3.9350562
1.3783954  -0.91410553  4.114108
-0.5491941 -0.6826697  3.4726064
-1.6796126  -0.74270356  3.9046853
-0.38923144 -0.66664803  3.386912
-1.477101   -0.75224257  3.9575832
-0.7450974 -0.6670771  3.5241282
-0.69689685 -0.66162115  3.514727
-1.2394308 -0.7593733  4.017869
-1.67821   -0.7172626  3.9203544
-1.61335   -0.7027902  3.9492664
-1.7027819  -0.69143355  3.9340346
-1.597022   -0.69747305  3.948497
-1.2609566 -0.7175239  4.037697
-1.477395  -0.6842501  4.0013485
