ply
format ascii 1.0
element vertex 1472
property float32 x
property float32 y
property float32 z
end_header
-0.79190326  0.7394429   2.8396106
-1.5232713  0.8976784  2.9457989
-0.6866423  0.7333263  2.8515484
-0.88152194  0.7591453   2.7898998
-1.5312598  0.9042732  2.9286416
-1.1629183  1.0364432  3.8742247
-0.96375716  0.77401763  2.7527432
-1.5270271   0.90791917  2.917433
-0.56874526  0.72845703  2.868134
-1.0786153  0.7937168  2.7013333
-1.0687841   0.79381573  2.702481
0.7391889  0.58393955 3.2307758
-1.0285437  0.7996038  2.7401009
-1.0185387  0.797466   2.7383392
-1.058703    0.79779905  2.6918554
-1.005845    0.80114436  2.7333732
-1.0430537  0.8024121  2.6849723
-0.59377104  0.7564962   2.8472807
-0.58190256  0.7542136   2.8434684
-0.7318945  0.767644   2.7710814
0.8022928 0.5909069 3.2255855
0.8213699 0.5883417 3.23066
-0.5972607  0.7592479  2.8439045
-0.720893   0.7674496  2.7719371
-0.60962486  0.75510454  2.7969441
-0.584498   0.7595454  2.8350644
-0.48684824  0.74785674  2.8599126
0.804829 0.594865 3.221597
0.8257226  0.59203345 3.2265038
-0.57134545  0.75864136  2.8340735
-1.0262876  0.8078124  2.6718137
-0.66552585  0.7716446   2.8028793
0.8207593 0.5961869 3.2228675
0.1992844 0.7385613 3.3634288
-0.71166724  0.7716067   2.7615237
-1.5689628   0.94162667  2.8261554
-0.653164    0.77251244  2.8004875
0.79759234 0.6018209  3.2123818
0.8188981 0.5997077 3.2194116
-0.9856255  0.8137385  2.7015204
-0.65710485  0.77686715  2.7911456
-1.5014416   0.94247675  2.842988
-1.4111786   0.93623006  2.8774574
-0.6577817  0.7795151  2.785979
0.8467648 0.6057355 3.212144
0.8449456 0.6095708 3.2076707
-0.7781646  0.795275   2.7036445
0.09792801 0.76635814 3.2771797
0.351273   0.68425333 3.115294
0.05388857 0.7763162  3.2539048
0.36706054 0.6849575  3.0933247
0.36625072 0.68845475 3.0825381
0.3731401  0.69028336 3.0865066
-0.87839305  0.8189858   2.6473396
-0.83170444  0.820361    2.6886928
-0.83780694  0.82152396  2.6828048
-0.8617377  0.8264977  2.6283536
-0.9649139  0.8444483  2.5870616
-1.4533612   0.99146974  2.7143512
-1.4446715  0.9988804  2.6966076
-1.3843858  0.9972143  2.712621
0.2925538 0.8284931 3.2352622
-1.2726521  0.9988603  2.7261002
-1.2982653  1.008205   2.693379
0.45281413 0.8598596  3.199851
0.4601144 0.8630889 3.1871545
0.5138784 0.8647443 3.1861045
0.5521861  0.86366385 3.1908646
0.5585226  0.86310863 3.1915424
0.5738094 0.8638849 3.1897862
0.548458  0.8677721 3.1758833
0.60949165 0.8628453  3.197196
-0.5018232   0.97672784  2.826808
-0.5279766   0.98063457  2.8162708
0.6198348 0.8656681 3.1963575
0.5516053  0.87051433 3.1608646
0.58015215 0.8692925  3.1748788
0.68227965 0.8629484  3.2212448
0.69403476 0.8616822  3.2229462
0.59035534 0.8691653  3.1746705
0.55530417 0.8736666  3.1573262
0.5835073 0.8718679 3.1695883
0.72942483 0.86168796 3.2292545
0.5777621 0.8740807 3.1623454
0.6551301 0.8685572 3.1965718
0.77798134 0.8577736  3.241996
0.6063947 0.8710822 3.169127
0.61235774 0.87183267 3.1708977
0.65553415 0.87230617 3.1869266
0.6067753  0.87455386 3.1606703
0.6810959  0.86864436 3.190689
0.7793324 0.8632197 3.2286487
0.62751544 0.877085   3.1614087
0.6220285 0.8777903 3.1590862
0.77670634 0.86657536 3.2225277
0.6254014 0.8794839 3.150852
0.6984339  0.87520826 3.179502
0.73708534 0.87305075 3.1935833
0.72725844 0.8767705  3.1800163
1.1288121 0.8795509 3.2272835
0.58300424 0.937037   2.9981797
0.8623393 0.9116152 3.0909228
0.85415804 0.91587865 3.079013
0.79385793 0.92181265 3.055693
0.878736   0.91489416 3.084638
0.85570765 0.91830647 3.0668395
0.7922029 0.927138  3.0406034
0.68238574 0.93630415 2.9957912
0.8921418 0.9202128 3.0720317
0.8870436  0.92138565 3.0709045
0.70417416 0.9362094  2.9993086
0.8666733  0.92401266 3.0589137
0.94227564 0.9209742  3.0762053
0.6997925  0.94166374 2.9819794
0.773213  0.9355823 3.0099182
0.90321434 0.92562246 3.060438
0.9183855  0.92497545 3.065075
0.8981715 0.9262577 3.0551288
0.9396966 0.925335  3.0749967
0.99396896 0.9216337  3.0868413
0.79781055 0.9375326  3.0119717
0.95525897 0.9249522  3.0702615
0.99964553 0.9213715  3.087547
0.94717085 0.92437726 3.0627422
1.00897   0.9221909 3.0879414
0.9769777 0.9254451 3.0724614
1.0157427  0.92411065 3.0800464
1.0129385  0.92464983 3.0711374
0.89646816 0.93571407 3.028147
0.997185   0.92806065 3.0663555
0.9119421 0.9349006 3.034492
1.0271902  0.92615366 3.078574
0.8848371 0.9370613 3.0228055
1.1601179  0.91776645 3.1282063
0.91748375 0.9361067  3.0299006
0.64584357 0.95952505 2.9321635
1.0041312  0.92978626 3.057712
1.0135646  0.92926764 3.0623443
1.1757358 0.9195818 3.12643
0.939191   0.93630123 3.0302281
1.0225469 0.9290757 3.0608873
1.0115237  0.93181413 3.0550249
1.017567  0.931446  3.0587041
0.962941  0.9353968 3.0360382
1.1792122 0.9195789 3.1199074
0.7933544  0.94948596 2.9716353
0.92247075 0.9399459  3.0230722
1.0071007  0.93352383 3.0494428
1.0361239  0.93111473 3.0598135
0.95894945 0.93756956 3.0287745
1.1282252 0.9250908 3.0966938
1.0159925  0.93291473 3.0500908
1.0894951  0.92905694 3.0817375
0.7971124 0.95123   2.96823
1.3497566  0.90850013 3.1757872
1.1375732 0.925992  3.095736
1.0124681  0.93565094 3.0465019
1.0843605  0.93059975 3.0749586
1.6065366 -0.8766739  4.6786494
0.64359003 -0.7557127   4.6234546
1.557916   -0.65725833  4.4656024
1.4977553 -0.5916039  4.413772
1.5093462 -0.5816219  4.3940372
1.8792009 -0.5784653  4.292391
0.72781485 -0.36269453  4.2317367
1.5796455  -0.45155206  4.25856
-0.14304927 -0.17990069  4.0146737
0.8733796  0.03621176 3.8117397
0.67763877 0.16267766 3.685127
0.5995234 0.1770367 3.6697018
0.7074172 0.1823363 3.6618698
0.11941945 0.4324463  4.3416686
-0.242856    0.45102596  3.5533016
0.7623878 0.3232009 3.5121517
0.8181905  0.36541313 3.4670174
-0.12097314  0.50859714  3.4201858
-0.14526115  0.5137049   3.4169064
0.6048996  0.41108826 3.4163332
0.64093566 0.40712702 3.421719
0.6918032 0.4028509 3.428655
0.71678936 0.39851424 3.4293747
-0.997363    0.62841755  3.0981393
-1.0272046  0.7456212  3.1857228
-1.3242842   0.66780216  2.996101
-0.99929607  0.6303334   3.090711
-0.11148281  0.5308567   3.3764071
-0.9858322  0.6390179  3.0762663
0.7636924  0.41661313 3.4111364
-1.4904512  0.7320302  3.0094762
0.8527981  0.41835457 3.4156432
0.8640934 0.424138  3.4090943
-0.8987199  0.6766932  2.981794
0.8834944 0.4652283 3.3642018
-1.1485858  0.749479   2.8081024
-0.79929614  0.71415114  2.890241
0.77837604 0.5863546  3.2315955
-0.69750416  0.7733911   2.7571049
-0.7038638  0.7759377  2.7497563
0.80782527 0.6164617  3.2006924
0.3625767  0.67842734 3.1013427
1.2873683 0.9160134 3.1566365
0.37419242 -0.5046288   1.6079478
-1.1689551 -0.655202   3.5295408
-1.1428753 -0.6517501  3.5526233
-1.1414055 -0.6454108  3.5512738
2.0673807 -1.0492611  4.6825128
0.7714937 -0.9675895  4.835764
0.6430351 -0.9508804  4.8036985
0.73048973 -0.94362825  4.803185
0.95064336 -0.9214245   4.788088
1.0111915 -0.6766433  3.477634
0.9946303 -0.9168832  4.77634
0.75975776 -0.876719    4.751689
1.02256    -0.89503473  4.777055
1.0815527  -0.89091676  4.750851
1.2022446 -0.9009327  4.7676277
1.1538724  -0.89399385  4.7709737
0.95317125 -0.8640581   4.7297635
1.5181129 -0.8890064  4.713996
1.5965893 -0.8812305  4.6783724
1.1500487  -0.84855807  4.709781
1.8328032 -0.8912375  4.632954
1.731703   -0.88124615  4.644722
-0.64271444 -0.85092366  5.704641
1.5112541  -0.85084003  4.6662583
-0.55166537 -0.84679604  5.6743894
2.003274  -0.8740115  4.5785418
-0.49390668 -0.85194755  5.686145
1.904169  -0.8602888  4.574609
1.5729097  -0.84324837  4.65536
1.788526   -0.85055774  4.5981684
1.9143673 -0.8535541  4.5605683
1.93982    -0.85498285  4.559502
2.025058   -0.85654277  4.527296
1.6916275  -0.84224904  4.6307516
-0.5785636 -0.8271925  5.697835
1.9096807 -0.8458539  4.5686836
0.5906728  -0.72872776  4.5929804
0.6003855  -0.72794545  4.5918207
-0.5613911 -0.8137162  5.726701
0.8419407 -0.7450684  4.619472
-0.22076733 -0.82102925  5.716085
0.78834367 -0.71234185  4.5844517
0.7538866 -0.7083703  4.586456
1.0240759 -0.7037721  4.576226
1.2302648  -0.71554935  4.5832143
0.63586265 -0.6516679   4.524331
0.68591774 -0.6477269   4.521693
1.1822968 -0.6925533  4.5599318
0.75606394 -0.6421604   4.518376
1.5518255 -0.7087465  4.520274
-0.15798059 -0.7344949   5.8110065
0.8473797  -0.64117587  4.505897
1.4722381 -0.7012255  4.525609
0.8069174 -0.6378046  4.5145316
1.5846363 -0.7087143  4.5132575
1.2133693 -0.6733621  4.539365
0.73283505 -0.6127471   4.4735427
1.3439174  -0.67424494  4.519321
1.5315582  -0.68457806  4.4884214
0.7530905  -0.60476875  4.474697
0.7402709  -0.60351896  4.4803476
0.9698768 -0.6247123  4.4996977
1.5117327  -0.67252576  4.483445
0.9048225 -0.6179752  4.5007615
1.5006415  -0.66633594  4.4872518
1.5650841  -0.67253494  4.4834137
0.9356134  -0.61511016  4.500392
1.6254357 -0.6729182  4.458216
1.6450634  -0.67240024  4.456575
1.6804022 -0.6727349  4.4487085
1.5476229 -0.6633912  4.4771614
1.0660726 -0.6147121  4.493859
0.8374231 -0.5796839  4.449402
2.1261637  -0.66930526  4.3205404
1.1082301 -0.5786454  4.4450364
1.1772643  -0.58606815  4.4555283
0.16695136 -0.5497244   4.9523153
1.4610734 -0.6090826  4.42691
1.4015731 -0.6029724  4.4441433
1.4474764 -0.6026807  4.4347477
1.5398884 -0.606736   4.41272
1.2130364 -0.5773106  4.4364247
1.4956737  -0.59681875  4.421232
1.5775872  -0.60197484  4.3979588
1.6782715 -0.6034329  4.384012
1.7611799 -0.6041291  4.3638263
1.9255066 -0.6139284  4.3209057
1.7948415  -0.60469663  4.3540573
1.8039354 -0.604655   4.3523436
1.979695   -0.61472595  4.309084
1.3181629  -0.56134415  4.419988
1.9179336  -0.60571295  4.3191886
1.9330213 -0.6054416  4.3167
1.9716715  -0.60626256  4.3049865
1.8201513 -0.5922232  4.3363767
1.8880031 -0.5980445  4.331265
2.0022786 -0.6047294  4.2907047
1.8435457 -0.5945457  4.3398423
1.9252777  -0.59921235  4.3160863
0.02315175 -0.38309047  4.0872235
1.9405323  -0.59590584  4.3122272
1.9784125 -0.5978605  4.300299
1.5878991  -0.56511337  4.3605065
1.9668196  -0.59610176  4.306565
1.4419796 -0.5486001  4.3734374
1.6643329  -0.56787086  4.343554
1.4732673e-03 -3.7104774e-01  4.0596061e+00
1.6192396 -0.5612584  4.352669
1.747335   -0.56931955  4.3328686
1.7558666 -0.5684787  4.3214836
1.9058113  -0.58036304  4.288347
1.6829315  -0.56217057  4.338056
-0.12904352 -0.34403747  4.003337
1.7899446 -0.5689112  4.3136816
2.0023146  -0.58438367  4.278046
2.0081007  -0.58452046  4.2729907
-0.17196691 -0.33827096  4.005533
-0.15033977 -0.33891854  4.0059175
-0.00681457 -0.357085    4.0474186
1.915246   -0.57167464  4.2862043
-0.12045692 -0.3362212   4.0016894
-0.21030064 -0.32737574  4.0130353
-0.03371624 -0.34578645  4.0239124
1.9899771 -0.5739777  4.266728
1.9824214  -0.57215065  4.266093
-0.08421876 -0.33640936  4.004666
-0.05937062 -0.33915845  4.011125
2.2382175e-03 -3.4990817e-01  4.0504699e+00
-0.2541769  -0.31655186  4.0486093
-0.09986518 -0.32681963  4.000468
-0.21335995 -0.31658357  4.019594
0.03694856 -0.3446033   4.0800776
0.05209187 -0.34465602  4.1105704
-0.10949235 -0.31568053  3.999007
-0.21537529 -0.30691195  4.0180597
-0.24420203 -0.3023987   4.0381303
-0.20158023 -0.30368567  4.010719
0.01406968 -0.32784232  4.0484366
0.04039832 -0.33383968  4.0917315
-0.02363422 -0.3172239   4.0269485
0.0580317  -0.33485582  4.1217623
-0.05667279 -0.3101662   4.009536
-0.09131934 -0.30476868  3.9999256
0.5582622 -0.3965922  4.2642274
0.02095407 -0.3196607   4.0618477
-0.15639234 -0.2948017   3.9987903
-0.03354037 -0.30268234  4.0195684
0.04038139 -0.3147055   4.084149
-0.10502627 -0.2903387   3.9999084
-0.09271517 -0.29193237  4.003014
-0.05889044 -0.29563907  4.006953
0.6379546  -0.39030907  4.2523704
0.0130812  -0.30656642  4.0530686
-0.15429538 -0.28280038  3.9998264
0.5753703  -0.37734362  4.2373204
0.62903064 -0.38395604  4.2528205
-0.03124114 -0.2931625   4.0190425
-0.0180156  -0.29444915  4.0306907
-0.23814282 -0.27073854  4.0332484
-0.979555   -0.17231023  3.8022377
-0.12116279 -0.27925614  4.0004635
0.40921995 -0.34085658  4.190155
1.5606172 -0.4618723  4.254916
0.71986634 -0.37069845  4.239375
0.7748875  -0.37319863  4.24168
1.5703537 -0.4567602  4.256951
1.4266778 -0.441963   4.269478
-0.3138126 -0.2430995  4.1076427
1.618585   -0.45712414  4.2456264
0.8542918  -0.37381336  4.2376795
-0.20423178 -0.24273556  4.0196185
1.5983814  -0.45084092  4.234778
0.7958921  -0.36445528  4.228016
1.5595319  -0.44664025  4.2455716
1.5320894 -0.4424177  4.2466426
1.6273632  -0.45254517  4.237939
-0.02226649 -0.26014337  4.0328903
0.08139577 -0.27501407  4.1450877
1.7618636  -0.45840663  4.206927
-0.18397966 -0.2368617   4.011101
1.6195258 -0.4454567  4.2359123
1.5534947  -0.43763235  4.239855
1.5671043  -0.43593857  4.230367
0.86698866 -0.35970592  4.229855
1.7407973  -0.45139232  4.212164
0.6702769  -0.33576816  4.197196
1.7559497 -0.4519138  4.209168
-0.16998821 -0.2301495   4.0093365
-0.05998794 -0.39390922  5.9464602
0.8249373  -0.35214657  4.227106
0.9124452 -0.3625931  4.2383103
1.6149534  -0.43655542  4.2193694
-0.30589247 -0.22030315  4.087724
1.5596963  -0.43107978  4.236686
1.8537214  -0.45579115  4.1846943
1.7488104  -0.44590646  4.209095
1.8397098  -0.45388997  4.1878676
0.03088009 -0.25088003  4.066934
1.9465456  -0.46283278  4.1636043
1.9713922 -0.4636025  4.154317
0.56987923 -0.31535932  4.1868143
1.7757097  -0.44537368  4.192504
1.9933943  -0.46350795  4.1476374
0.01016537 -0.24230218  4.0489492
1.7377839  -0.43860325  4.193886
0.71594816 -0.25123882  3.1844006
-0.06729834 -0.22952999  4.0147004
0.91187847 -0.34935665  4.2190094
1.9143137 -0.4539791  4.1666136
1.9599332  -0.45682412  4.1584888
2.0155694  -0.45952994  4.148758
2.7553344 -0.8225767  8.439763
1.8055145  -0.43722922  4.185414
-0.18688045 -0.20886669  4.017742
-0.08377224 -0.21982266  4.0123663
1.9571362 -0.4444185  4.142697
-0.2690621  -0.19686994  4.064977
0.06719152 -0.23172854  4.125401
-0.18450771 -0.1966148   4.021564
0.02328939 -0.2211921   4.071474
-0.22041504 -0.19140108  4.037058
0.03082532 -0.21518198  4.074829
0.07302632 -0.22085139  4.127995
-0.09076196 -0.19214533  4.0173287
-0.06893967 -0.19279762  4.024566
-0.14481384 -0.18350367  4.019148
-0.0813803  -0.18871753  4.02089
0.04451687 -0.20561698  4.0926943
0.03743462 -0.19898853  4.0909595
-0.090778   -0.18009655  4.024087
-0.20009437 -0.1671893   4.0385084
-0.13754109 -0.17078714  4.0225043
-0.2231108 -0.155483   4.051706
-0.21056949 -0.15722731  4.050298
0.06999312 -0.19107051  4.132796
-0.11429517 -0.16127679  4.026449
-0.24765491 -0.1477386   4.0702534
-0.07588456 -0.15890831  4.025665
0.03395528 -0.1733393   4.094165
-0.32617185 -0.13777097  4.1882615
-0.12128092 -0.151486    4.02925
0.6254472  -0.23913011  4.099745
-0.06643759 -0.15563162  4.037219
0.6164927  -0.23578997  4.0987997
-0.14832564 -0.14320426  4.0360117
0.6564382  -0.22320798  4.0875773
-0.11493754 -0.1226808   4.0435553
0.7604277  -0.22272281  4.083256
0.7795756  -0.22439317  4.091241
-0.26035565 -0.10144321  4.091063
0.77072287 -0.21940327  4.0922275
0.72130513 -0.2099609   4.0762625
0.8581161  -0.22529909  4.089753
-0.3063919 -0.09114    4.132908
0.8071976  -0.20368847  3.851175
-0.1780379  -0.09875888  4.0620875
-0.90409577 -0.06523972  5.2320914
0.02756329 -0.12263326  4.1118603
0.01902718 -0.12037306  4.1005936
-0.19983642 -0.09157234  4.0680666
-0.21343139 -0.08709483  4.079171
-0.04905479 -0.10319536  4.0686054
-0.0373387  -0.10481843  4.073273
0.6621319  -0.18175015  4.0454516
0.88117284 -0.20760548  4.072016
0.8646912  -0.20462832  4.069781
0.6782154 -0.1804185  4.0441003
-0.07847761 -0.09293336  4.0623384
0.65260816 -0.17643529  4.045527
0.89284676 -0.20329964  4.067245
-0.07042805 -0.08619119  4.068114
0.780404   -0.17397572  4.0378623
0.66580135 -0.15843184  4.0262246
0.05599397 -0.08872622  4.158748
0.8379888  -0.16995494  4.0307903
1.0394148  -0.18904634  4.0522585
-0.15763266 -0.04549503  4.0832963
-0.05929599 -0.05797946  4.090812
0.8464971  -0.15543821  4.0184593
0.8383401  -0.15040946  4.0192013
-0.13976383 -0.03068338  4.093855
-0.18430588 -0.02535193  4.11916
-0.30121973 -0.01190165  4.1903195
0.7197677  -0.12698604  3.991561
1.317278   -0.19967215  4.042707
0.7512681  -0.12352041  3.986654
-0.1368087  -0.01496831  4.100033
-0.53807646  0.02228949  4.810939
0.8435007  -0.12306675  3.9816701
-0.68520755  0.06593677  3.867421
1.2890244  -0.17450725  4.025236
0.66016465 -0.08644427  3.9417799
0.68602204 -0.0880265   3.9508693
0.10586824 -0.03513366  5.2676473
0.64398617 -0.07847504  3.9392247
0.6956562  -0.08523159  3.940405
0.8538051  -0.10398112  3.9659948
0.68303955 -0.07897194  3.9405277
0.63164955 -0.06630979  3.9260354
0.6995598  -0.07508872  3.9373908
1.2296101  -0.14064725  3.9946933
0.78359663 -0.06482605  2.6644416
0.6835846  -0.06499399  3.9244993
-0.7888194  0.1209956  3.7281778
0.7461038  -0.06822892  3.9341717
0.75435    -0.06010956  3.919623
0.77197015 -0.05919021  3.9177945
-0.8478985  0.1496353  3.7121933
0.7792735  -0.05308418  3.9155815
0.8082531  -0.04971743  3.9143481
1.1953841  -0.08349039  3.9405582
1.0279866  -0.05929623  3.911476
1.0271728  -0.04161987  3.8981
0.591473   0.01646604 3.838958
0.67085344 0.00862261 3.842807
0.60613596 0.03054477 3.8255486
0.69377047 0.02243002 3.8377037
1.0919942  -0.02535852  3.8990526
0.68365055 0.03011168 3.8235795
1.1039467  -0.02336089  3.877062
1.7229347  -0.10261468  3.8536084
0.72300726 0.03257069 3.819861
1.1866395  -0.02711936  3.8795466
0.8294985 0.0210312 3.832958
0.73106045 0.03509878 3.8224082
0.7030217  0.04009041 3.812942
0.858036   0.02235923 3.8331633
1.3731678  -0.04158391  3.869376
0.7607092 0.0399235 3.8186443
0.78835297 0.03624992 3.8183599
1.3614006  -0.03598099  3.859125
0.6505099  0.06026147 3.7936578
0.8560552  0.03840423 3.8210964
0.5920579  0.07467696 3.7770085
0.86681896 0.04136521 3.8131013
1.3632041  -0.02358519  3.852831
0.59952086 0.0809233  3.7739937
0.8990981  0.04315866 3.8115554
0.86378264 0.0495672  3.804755
0.89014393 0.04646466 3.8090262
0.9270611  0.04449237 3.8104208
0.9191777  0.04876193 3.809768
0.6882353  0.07959995 3.77236
0.66722727 0.0848278  3.7690105
0.7559009  0.07876956 3.7697256
0.70906985 0.08651181 3.7675774
0.77173656 0.08086033 3.7711976
0.8337216  0.07471868 3.7812579
0.7386238  0.08882101 3.7662742
0.78150195 0.0856177  3.7648895
0.7758406  0.09335903 3.7619898
0.8338444  0.08846954 3.763518
0.661332   0.11530845 3.73594
0.7194015  0.11149542 3.736703
0.6472144  0.12709339 3.7203166
0.6903687  0.12289409 3.7230523
0.72668576 0.11815846 3.7348084
0.7810981  0.11540707 3.733625
0.75896114 0.1193352  3.7316706
0.7106044  0.13087276 3.7185972
0.75004953 0.1264386  3.7203279
0.73469687 0.13183832 3.7186897
-1.8031253   0.49296758  3.9350455
0.7432578  0.13708821 3.710098
0.77213    0.13394585 3.714287
0.79572946 0.13165727 3.7176373
0.78706735 0.13512056 3.712928
0.7791876  0.13997619 3.710388
0.6083127  0.16405582 3.6782722
0.6448096  0.16035013 3.6855392
0.6365427  0.16261123 3.6844783
0.6551917  0.16112784 3.683985
0.6106857  0.17189686 3.675547
0.69594115 0.16007148 3.684131
0.17512617 0.2702346  4.357316
-1.7117212  0.5106269  3.8862453
0.6193343 0.1731944 3.6693268
0.672283   0.16854118 3.6816926
0.7251856  0.16315866 3.6824896
0.16567448 0.28418806 4.353234
0.6881568  0.17170337 3.6842692
-1.5692571   0.50627154  3.9246368
-1.3900485   0.48860064  4.0075116
-1.8781054   0.54693013  3.7795851
0.6730288  0.18343924 3.6661677
-1.2743297  0.4838664  4.0220423
1.196225   0.11919948 3.722387
-1.3842162  0.5000137  3.958976
0.7234247  0.18349221 3.6637921
0.11377329 0.31085873 4.259495
0.08610796 0.31917897 4.25693
-1.30368    0.5018197  3.980696
-1.2374319   0.49608728  4.006132
-1.8039548  0.5604521  3.7524183
0.0999713  0.32357168 4.2448683
-1.2570202  0.5006821  3.9903574
0.04030811 0.33245805 4.231839
-0.38658753  0.36344603  3.7606835
-0.40354684  0.36666852  3.764633
-1.1882819  0.499301   3.9798408
-1.2137395  0.5045411  3.9736824
0.10304651 0.3354929  4.238458
-1.5159464  0.5422904  3.8199646
-0.41700032  0.38379923  3.7751157
-0.09552348  0.36705714  4.1549854
-0.20500161  0.38821352  4.1729436
-1.4831417  0.5486598  3.812215
-1.2747993   0.52805907  3.8953
-0.19473517  0.39272615  4.1667037
-0.36971644  0.38634992  3.7218783
0.0216301  0.36958832 4.17123
-0.08474459  0.38394278  4.1375775
0.57989335 0.25100893 3.58729
0.06319793 0.37927094 4.217181
0.5647333 0.2560803 3.581276
-0.6366797   0.44242573  3.594098
0.58038104 0.26269567 3.5759556
-1.6164548  0.5908234  3.6338096
0.5947037  0.26508996 3.5717165
0.58533686 0.26903597 3.5709548
0.65961456 0.2598079  3.5834386
0.60524625 0.2677273  3.5656762
0.6132257  0.26619455 3.572097
0.6300543  0.26675928 3.5702832
0.67608327 0.260196   3.5805652
0.68063045 0.26044637 3.5835545
0.70607835 0.25647965 3.5839097
-1.5693789  0.6011723  3.6594024
0.7328368  0.25840077 3.5806468
0.7726752  0.25433242 3.5832915
0.6354766 0.2743924 3.5651312
-0.31783694  0.42313522  3.6385136
0.76462156 0.25967386 3.5818954
0.69633895 0.26998565 3.570736
0.72450197 0.2681239  3.570993
0.7568747  0.26393154 3.5775242
0.70668405 0.271652   3.5657177
-0.01532829  0.4252402   4.04509
0.73200345 0.2716664  3.5672219
-0.04513616  0.4308585   4.035275
0.8103706 0.2614254 3.5784807
0.6877454  0.27913132 3.5591106
-0.03066274  0.435227    4.027107
0.58692825 0.29813382 3.5377822
0.73738587 0.2780646  3.5637872
-1.6952946  0.642574   3.5630815
-1.6049441  0.6307754  3.5768406
0.86489326 0.2617798  3.576674
0.8573969 0.2650966 3.5778873
-0.26047438  0.4352002   3.6031039
-1.639574   0.6428679  3.5641303
-1.772072    0.65888304  3.5129163
-1.7063506  0.6511244  3.5331702
0.5604834  0.31194636 3.5220165
0.8274631 0.2768379 3.561915
0.0789027  0.44146496 4.0630813
0.5780623 0.3128933 3.5231967
0.65687644 0.30206335 3.5341568
-0.87383175  0.5191243   3.3732042
0.8344887  0.28111866 3.5580535
0.55758077 0.32068405 3.5136065
0.6306088  0.31180945 3.5236704
0.6983736 0.2543169 3.0629084
0.104018  0.4482958 4.06898
0.63822544 0.3154789  3.5201356
0.7170942  0.30478066 3.5322304
0.7081364  0.30657127 3.5306783
0.7440782  0.30363965 3.5333996
-1.0216389  0.5477602  3.290306
1.7435354  0.15862578 3.5805357
-0.98252976  0.5497811   3.31056
0.7329605  0.31264827 3.5247812
0.77607083 0.3068287  3.5282943
0.80266607 0.30301607 3.5308654
0.7689317  0.30874488 3.5280066
0.7343058  0.32006076 3.5151412
0.5557235  0.34588954 3.4880207
0.8156051  0.31051582 3.526903
-1.0101174  0.5603969  3.242134
0.7892355  0.31643263 3.5276237
0.58275765 0.3440647  3.4883263
0.57351506 0.34681252 3.4871378
0.8076594  0.31472945 3.5254216
-1.8091805   0.70495415  3.412749
0.6249586  0.34812793 3.4842126
-0.7097113  0.5357284  3.3169835
-0.17939362  0.47624198  3.4927807
-1.1017793   0.58686054  3.19623
-1.0934677  0.5868521  3.2006412
0.67373055 0.34608138 3.4840968
-1.0688388  0.5842194  3.203376
0.5726151  0.36082524 3.4708147
0.63111186 0.35363325 3.480853
0.61670595 0.35691106 3.479573
0.69941956 0.347114   3.4833734
0.6215586  0.36189362 3.4688444
0.64476603 0.35917374 3.4708323
-0.17756121  0.48955178  3.4783418
-0.78230023  0.5589092   3.2622194
0.6076844  0.36733368 3.4649546
0.6372412  0.36293724 3.4682808
0.70636183 0.35664323 3.4765728
0.73621744 0.35219154 3.4786193
0.6231867  0.36875153 3.4619143
0.7226757  0.35741678 3.4754574
0.6960962  0.36184016 3.4643931
0.7670463 0.3543402 3.4778137
0.04939088 0.5112649  3.8348515
-1.483691   0.6640903  3.083924
-0.5482485  0.5469737  3.3311327
0.01545425 0.52147657 3.829956
0.73142415 0.36464047 3.4666426
0.7976227  0.35626248 3.4786377
-0.14874619  0.50262827  3.4526386
0.03173616 0.52116823 3.8292332
-0.13565555  0.503613    3.4494042
-0.91073143  0.5968711   3.2191174
0.04277769 0.52559054 3.8207853
0.5699698  0.39467347 3.4371688
0.7985605  0.36299148 3.4683356
0.8220762  0.36106226 3.4743934
-0.15124199  0.512833    3.4571779
0.8150295 0.3628027 3.4723766
0.07704403 0.5271718  3.8271406
0.11782914 0.5261347  3.845244
0.11012734 0.52761227 3.8390512
0.80389106 0.36956015 3.4646568
0.59261215 0.39869997 3.43041
0.63351417 0.39418134 3.4362106
0.6122094  0.39730313 3.42995
0.6258414 0.3958407 3.4334185
0.6512734  0.39260536 3.434201
0.55150634 0.40769413 3.4201224
0.64112663 0.39542627 3.4320788
-0.65884393  0.5767774   3.2359214
0.5699875  0.40846768 3.4201808
0.5618886  0.40996274 3.4163928
-0.7030037   0.58910453  3.2447028
0.66861635 0.39643902 3.4334912
0.819715   0.37644243 3.457832
0.14041772 0.5390209  3.8610716
0.6120511 0.4046592 3.4143715
0.6535383  0.40020844 3.4293373
-0.85150266  0.65695745  3.5137944
0.67250544 0.40349424 3.4296324
0.6324986 0.4091066 3.4193017
0.6902481  0.40291366 3.4258149
-0.55152214  0.5336583   2.9255059
0.7389878 0.3986831 3.4325092
0.73340565 0.40241566 3.426648
0.6498163  0.41482997 3.4130678
0.05435567 0.55873483 3.7580822
0.74775517 0.40173143 3.4272418
0.7710556  0.39822045 3.430065
0.1679956 0.5581728 3.8819342
-0.99435145  0.6353064   3.0821197
-0.93726236  0.63484     3.1207514
0.6983202  0.41300595 3.4141524
0.712301   0.41289333 3.4190588
-0.10549201  0.5412465   3.3833928
0.7859877 0.4038809 3.4261868
0.03789328 0.3380066  2.8888311
-1.2336146e-03  5.2624708e-01  3.3800857e+00
0.7555858  0.40953457 3.4109163
0.7927895  0.40823743 3.4218428
0.5967633  0.43612835 3.389468
-0.7717882  0.6203323  3.130879
0.8309223  0.40472525 3.4285424
0.5643256  0.44212985 3.3836827
-1.0723838   0.65709376  3.0325847
0.7366356  0.41886815 3.408563
0.8160269  0.40841392 3.4246223
-0.4869022  0.5884724  3.208634
0.0147318 0.5299159 3.3675804
0.06293914 0.50615185 3.2511466
0.8439458  0.40676042 3.425261
0.56055844 0.448322   3.3797853
-1.09554     0.66683424  3.0325599
-0.5533383  0.604724   3.210556
0.5691396 0.4478252 3.3789356
0.7531981  0.42171025 3.404897
0.78470266 0.41732532 3.4118602
0.8231915  0.41076586 3.4069054
0.87075955 0.4066073  3.4313672
0.04903176 0.5325732  3.378927
0.07152175 0.5285518  3.3763273
0.10323044 0.5734616  3.715877
0.74513197 0.42357057 3.4036129
0.8613879  0.40776682 3.4240208
0.55525696 0.45221445 3.3738894
-0.4837474  0.5962443  3.198838
0.8766229  0.40853232 3.423939
0.8163754 0.4150166 3.4016612
0.5465464 0.4553153 3.3709474
0.56505895 0.45324412 3.3717213
-1.1342365  0.6781661  3.018738
0.00476881 0.5428069  3.355257
0.5954402 0.4516288 3.3850346
0.6106701 0.4482884 3.3758745
0.87422925 0.41366634 3.4229248
0.88417006 0.41188106 3.4214578
0.8517617  0.41671464 3.4139414
0.6645498 0.4452891 3.3799798
-0.52202713  0.6097014   3.1815593
-0.00784109  0.5494451   3.3316839
0.85948384 0.42125362 3.4096615
0.87378854 0.42027658 3.411773
-1.1706058  0.6875141  2.9561374
0.6297913  0.45571867 3.366321
0.0683623 0.5448023 3.3371074
0.896591  0.4214923 3.4140823
0.8560292  0.42815968 3.4055624
0.638121  0.4598253 3.3616624
0.75712514 0.44471806 3.3822777
0.90458316 0.4245989  3.407663
0.02070213 0.5556738  3.3119714
-0.5439141  0.6186948  3.106583
-1.2131404  0.7061569  2.953894
0.7520852 0.4488413 3.3760698
0.9224733  0.42557034 3.4074197
0.0319639 0.5605784 3.3206005
-0.5203298   0.62028104  3.1196384
0.6956567  0.45983732 3.3627741
0.67017555 0.46477455 3.357508
0.75082374 0.45435137 3.3720202
0.66223097 0.46683595 3.3557985
0.7927365  0.45029697 3.378215
-1.2371558   0.71041137  2.8985384
0.723368   0.46130493 3.3630893
0.7437462  0.45878643 3.3662074
0.7798864 0.4546115 3.3729293
0.7161855 0.4640786 3.358705
-0.79029447  0.71892273  3.3923938
0.7990173 0.4540256 3.3739474
-1.1777415  0.7114702  2.9255
0.7295993  0.46572486 3.359707
0.78800327 0.4603438  3.361801
0.8575479 0.4523347 3.368188
-0.88444906  0.678751    2.979123
-0.8541387   0.68056536  3.0195062
-0.888726   0.6802337  2.9755754
0.90199614 0.44933635 3.3819847
-0.57469565  0.6497548   3.0953703
-0.7617169   0.67391545  3.0403142
0.8671462  0.45855477 3.3696077
0.9288104  0.45165607 3.3836765
-0.7468834   0.67752886  3.0382247
0.22142674 0.5550153  3.2721188
-0.84224695  0.68872577  3.0008967
0.83911914 0.46769765 3.3604126
-0.7849936  0.6808845  2.9752
-0.42984816  0.6424117   3.0673447
-0.9661221   0.70814943  2.906604
-0.7768821  0.6875081  2.9715734
0.88943034 0.47549954 3.3556037
-1.280451    0.91703975  3.7863827
0.9037814  0.47524664 3.3584003
0.929875  0.4727711 3.3588512
-0.75511736  0.69022185  2.9532816
0.9442953  0.47358122 3.3587155
-0.3593177   0.64539844  3.072569
-0.7655636  0.6963213  2.9461207
-1.0538523   0.73193455  2.8480368
-1.0131859  0.7339486  2.8865085
-0.4270681  0.6712281  2.9986386
-0.6377755   0.69880164  2.9495378
-0.59591293  0.6976122   2.9720497
-0.6134047   0.69649154  2.9439018
-0.82184875  0.7214542   2.8725827
-1.1439564  0.7608525  2.7841616
-1.1128542   0.75828475  2.7871227
-0.766775    0.72618216  2.9107003
-1.124327    0.75882787  2.7480175
-0.35570955  0.6750403   3.00021
-0.76195973  0.72964275  2.8993404
-0.36720142  0.6784338   2.992033
0.53674906 0.57786644 3.2339017
-0.78159195  0.73471403  2.8502564
-0.8793037  0.7465255  2.8181922
0.60048616 0.57434523 3.2418628
-0.83715177  0.74989295  2.8468282
0.5329365 0.5868247 3.2276158
-0.7826913  0.7411194  2.83916
0.6220305 0.5757253 3.237978
0.5432906  0.58913225 3.2258596
0.69372   0.5787022 3.2368052
0.7367965  0.57600707 3.237166
0.5748099 0.6037657 3.2107387
0.5505642 0.6071347 3.2038794
-0.9730091  0.7811249  2.7359776
0.7407519 0.582806  3.2324486
-1.0486684  0.791523   2.7077363
0.78619176 0.5789638  3.237781
0.73382044 0.5877396  3.2251258
0.743589   0.58971614 3.2266154
-0.4729661  0.7319335  2.8685904
-1.046149   0.7987879  2.694795
0.64139396 0.6073931  3.2026849
-0.5358652  0.7412853  2.8419986
0.7683265  0.59032613 3.2246141
0.83069247 0.58199906 3.2385972
-0.59325176  0.7555229   2.844893
0.82204366 0.5861604  3.2333019
0.66776896 0.608431   3.202104
0.83706963 0.5858395  3.2331657
-0.700788   0.7648555  2.77712
-0.7208011  0.7676479  2.7717774
0.82550925 0.59221256 3.22683
0.70329773 0.61009943 3.201373
-1.0196197  0.8013693  2.6510932
0.7133145 0.6112868 3.202889
-0.6670187  0.7726982  2.8032212
0.36262777 0.6574366  3.1192496
0.8772577  0.59207374 3.2331815
-1.0163409  0.8093126  2.6570275
-0.9859263  0.8137573  2.7016354
-0.6578812  0.7762022  2.79138
0.7957973 0.606178  3.2093878
0.81861734 0.6055405  3.2141106
-1.0170033  0.8137129  2.6506248
0.773947   0.61366165 3.200347
-0.786005    0.79191804  2.7064042
0.86962867 0.607781   3.2153928
-0.7533818   0.79624987  2.740179
-0.7970922   0.79573476  2.698573
0.35678214 0.67907655 3.1080585
0.8208081 0.6159451 3.1993558
0.84001666 0.61306244 3.2013793
-0.7781817   0.79532045  2.7036393
0.09727544 0.76715803 3.2795672
-0.78457475  0.7960144   2.6963818
0.8301537 0.6172361 3.2012053
0.81305504 0.61997956 3.1968596
-0.7951421  0.8002799  2.691237
-0.7315513  0.7985678  2.7339723
-0.8375798  0.8209456  2.6814888
-0.95741165  0.8433392   2.5929193
0.28918916 0.8093998  3.2865417
0.29307804 0.82847357 3.2349548
-1.259152   1.004973   2.7075262
0.33686692 0.8566596  3.262327
0.4488472 0.8432129 3.243133
0.3620875 0.8888247 3.2504017
0.45145446 0.8600543  3.200347
-0.40290627  0.9459831   2.906081
0.44700113 0.8645211  3.191568
0.45944905 0.8632283  3.1905446
0.54728216 0.8682832  3.176513
0.6085506  0.86358553 3.2002797
0.5917316 0.8648437 3.187525
-0.50239986  0.97717583  2.826711
0.62268454 0.8633582  3.1983602
0.5516663 0.8700916 3.1608346
0.5787997  0.86877525 3.1747007
0.6124362  0.86805266 3.1921525
0.681402   0.86329174 3.2216945
0.5936819 0.8691226 3.1787617
0.69369894 0.86195374 3.2231858
0.58334297 0.8719917  3.1691768
0.59989995 0.8713935  3.1769276
0.60649896 0.87104946 3.1681669
0.66230255 0.86933357 3.1881244
0.67990416 0.8712148  3.1995478
0.77912426 0.8632961  3.2288215
0.796745   0.86309934 3.236802
0.7406237 0.8691772 3.2056754
0.7853047 0.8690315 3.2135577
0.737498  0.8728719 3.1942446
0.886269  0.8626376 3.2432895
0.90703034 0.8700709  3.2297451
0.97620094 0.86655897 3.2426007
1.1195111 0.8725701 3.2425926
1.1061128 0.8767042 3.2253103
1.0988315  0.87332064 3.206919
0.8617831  0.90860474 3.1018047
0.60572845 0.9321013  3.0026581
0.58272326 0.93762463 2.9970007
0.8539471  0.91564023 3.0785532
0.8721965 0.9173839 3.0840888
0.8562781 0.9183903 3.065685
0.7921517  0.92755914 3.0408661
0.62023413 0.9426697  2.9766524
0.6822115  0.93642515 2.9958422
0.8919859 0.9204156 3.072175
0.9099881  0.92151386 3.07114
0.89514977 0.92429334 3.066032
0.9319614 0.9215504 3.0767832
0.79817516 0.931165   3.0210488
0.9423643 0.9211208 3.0768833
0.96849847 0.92143744 3.090216
0.6990803  0.94176817 2.981891
0.7732472  0.93527687 3.0093625
0.91809803 0.9249366  3.0652976
0.79289573 0.93533254 3.0146089
0.84973705 0.93036956 3.0333614
0.93897825 0.9259687  3.0736368
0.82761055 0.9324086  3.0231595
0.9940878 0.9218211 3.087374
0.8434591  0.93351525 3.0261424
0.95532495 0.9250196  3.07005
0.94744956 0.92559594 3.0649436
1.0088366 0.9224046 3.0878844
0.9975023  0.92784005 3.0661442
0.89728767 0.93558127 3.0280888
0.91188496 0.93487245 3.0343466
0.88517016 0.9371056  3.0230331
0.9611486  0.93209946 3.0464025
1.2825468 0.9092454 3.1742744
0.64580005 0.9600121  2.932486
0.9188006 0.937402  3.0302377
1.0233661  0.92807776 3.0609133
1.2878186 0.9097208 3.16706
0.7636991 0.3232926 3.513759
-1.1414016 -0.6665649  3.5539753
-1.1696608 -0.6546796  3.5277026
0.67854863 -1.1016309   4.943978
-1.1421965 -0.6486766  3.5523214
2.0634775 -1.048306   4.6778502
0.61716783 -0.9674673   4.822748
0.6093048 -0.90192    4.760003
0.8682932 -0.9247759  4.7863464
0.9711573  -0.89693177  4.7810698
1.1167283  -0.86891073  4.737646
1.0528381 -0.8585898  4.722284
-0.22146659 -0.90976423  5.6270194
1.6443964 -0.8815327  4.6600356
-0.42326072 -0.87714005  5.661894
1.6129214 -0.8738269  4.6806426
1.1597075 -0.8382715  4.7142506
1.2111856 -0.8449277  4.722795
1.886186   -0.87109315  4.586069
-0.6332705  -0.84577405  5.6793694
-0.13056076 -0.8809368   5.678462
1.6535883 -0.8495894  4.635831
1.78883   -0.853058   4.5991216
1.8948997 -0.858365   4.582717
1.6006676  -0.84366006  4.6507616
0.6028239 -0.7520826  4.614117
1.6217155  -0.83984184  4.6422105
-0.57617134 -0.82776845  5.6965837
1.9741303  -0.85302997  4.553798
0.6422003  -0.73821414  4.611389
0.59568447 -0.7306397   4.592992
0.72243613 -0.7441621   4.609282
0.7671197 -0.7470492  4.624533
-0.63444376 -0.7963148   5.710216
-0.22045898 -0.8221813   5.725042
0.6994011 -0.7199585  4.5896406
-0.10265346 -0.8165303   5.729351
0.7778315 -0.7048071  4.5859466
1.1694833  -0.71959305  4.585373
1.4582317  -0.70887274  4.536409
1.4440973 -0.6968814  4.522694
1.6281666 -0.7061088  4.500992
1.298148  -0.6783078  4.530446
1.6904678 -0.706411   4.4872932
0.6872276  -0.61255395  4.480045
0.8770401 -0.6256144  4.4977136
0.1837134 -0.6390035  5.0716715
0.7690902 -0.6058236  4.4766517
1.4891139 -0.6778383  4.5096087
0.73922104 -0.60141516  4.482757
0.8002417 -0.6051426  4.4845104
0.7820485  -0.59867334  4.4765167
0.9504211  -0.61491185  4.5011473
1.5458766 -0.6619891  4.479274
0.17332825 -0.5973491   5.0178585
0.16426495 -0.58226764  4.9881806
1.0612955 -0.5849456  4.450951
1.1067848 -0.575213   4.4449267
1.4124326 -0.5917643  4.4436736
1.3691808 -0.5822619  4.4265976
1.3917043 -0.5841055  4.43064
1.3790293  -0.57094646  4.426024
1.3937923  -0.56936544  4.404165
1.4540267 -0.5696078  4.3943653
1.9158155 -0.6062993  4.3215094
1.9348323 -0.6059514  4.315435
1.5715891  -0.57401145  4.364847
1.969916   -0.60719615  4.3073373
1.7682867 -0.5866678  4.3408303
1.7916389  -0.58892566  4.3336177
1.8656414  -0.59694797  4.3314195
1.8910775 -0.5975291  4.331861
1.9535716  -0.60263115  4.3117332
1.5487725 -0.567744   4.3737288
-0.13442965 -0.35847872  4.005896
1.7170479 -0.5798389  4.3460836
1.9038527 -0.5897874  4.311788
1.9394696 -0.5932303  4.3119035
1.6967444 -0.570298   4.3359046
1.968296   -0.59361726  4.3054743
1.9949033  -0.59453905  4.2877445
2.0285242e-04 -3.6945435e-01  4.0560722e+00
1.6193718 -0.560107   4.3549585
1.79561    -0.57133746  4.314748
-0.13309161 -0.3428326   4.0011516
1.7454807 -0.5662136  4.3294196
2.0041654  -0.58428174  4.274313
1.8739946  -0.57307976  4.3028812
1.9481585  -0.57386637  4.2752714
1.9849814 -0.5745904  4.266511
-0.12741715 -0.31371903  3.99787
-0.24312572 -0.3038559   4.0360837
-0.26221046 -0.29966903  4.054859
-0.171494   -0.29596686  4.000901
-0.10751927 -0.30248767  3.9984512
-0.07592502 -0.30589882  4.0054226
-0.23497334 -0.29069096  4.032499
-0.18975472 -0.28955355  4.0098286
-0.0197494  -0.30755273  4.027058
-0.14194092 -0.29143462  3.9994733
-0.20327601 -0.28408045  4.011485
-0.09013338 -0.29267198  4.000987
-0.05626651 -0.2975913   4.009978
-0.07078346 -0.29328346  4.00549
0.55675733 -0.37795958  4.2442703
0.02515939 -0.3044719   4.0694046
-0.12069657 -0.28039202  4.0002313
0.6234572  -0.38181752  4.284321
-0.13364555 -0.2754653   3.9895115
-0.08446101 -0.2812034   4.0031767
-0.05047898 -0.2856747   4.0139265
-0.02764352 -0.28691092  4.0131607
0.6905746  -0.37384826  4.249819
0.8538707  -0.37607828  4.238354
1.5362124 -0.4482968  4.270072
-0.2030948  -0.24226436  4.0150404
0.8374108  -0.36643064  4.2437277
1.5898029  -0.44465044  4.231878
1.5668122  -0.43669733  4.2265186
1.6344423  -0.44331515  4.236862
1.5982977  -0.43344194  4.2306585
1.5594178 -0.4284217  4.2357044
1.6051676 -0.4332887  4.2294016
1.8119972  -0.44953603  4.193354
0.8937744  -0.35294256  4.218493
-0.10183464 -0.2234451   4.0066185
0.02017359 -0.24078813  4.0584064
0.88220036 -0.34491003  4.221566
1.7676228  -0.43554014  4.185565
2.0118876 -0.4527648  4.134927
-0.04239693 -0.22144146  4.0256314
-0.2690468  -0.19792286  4.0637784
1.84465    -0.43316096  4.1692677
0.02226865 -0.22448514  4.072075
-0.18560106 -0.19684623  4.0213885
0.01689103 -0.20788702  4.067537
-0.08861104 -0.17983407  4.0216165
-0.19807471 -0.16605024  4.038211
-0.02820857 -0.18477172  4.043179
-0.13671035 -0.16875851  4.0220695
-0.24501795 -0.15114701  4.063898
-0.06072748 -0.16972695  4.032282
-0.07850903 -0.15569331  4.031531
-0.28743157 -0.13318622  4.1014485
-0.9495613 -0.1261273  5.3553495
-0.14611284 -0.1433697   4.035195
-0.21765703 -0.12689894  4.055807
0.00840341 -0.15183719  4.078791
0.7375398  -0.23415108  4.0933795
0.79553777 -0.23205565  4.0912824
-0.11357209 -0.12416023  4.0432315
-0.15231502 -0.11178609  4.048616
-0.05550947 -0.12069333  4.053507
-0.12074377 -0.11049318  4.0476103
0.8184177 -0.2171325  4.083532
-0.9190755  -0.06612744  5.2727265
-0.2500659  -0.08862691  4.092335
-0.21469316 -0.09001219  4.0757327
-0.19859233 -0.09212928  4.0686584
0.01505639 -0.11835952  4.0992827
-0.15191689 -0.08561762  4.0611115
0.89227384 -0.20734437  4.0662904
-0.12414703 -0.08610294  4.060038
0.642751   -0.17150335  4.027364
0.6778927 -0.1636212  4.024818
-0.18745838 -0.06056986  4.079075
-0.06014538 -0.05922409  4.089639
1.0295167  -0.18469156  4.047039
-0.94148904  0.07371642  3.728085
-0.18163629 -0.02720963  4.11002
-0.14023009 -0.03229825  4.093894
1.2668518  -0.19935232  4.047057
1.2963336  -0.17316282  4.018017
0.63092005 -0.07773566  3.9342692
0.68297094 -0.08065655  3.939348
0.8264287 -0.0985627  3.9660587
0.8450299 -0.0982905  3.965368
0.80955553 -0.07814778  3.9350526
-0.78818274  0.12304668  3.7281954
-0.7196006  0.1041024  4.8800116
-0.76458263  0.12211543  4.8528085
-0.84742117  0.15183303  3.7104123
0.7791948  -0.05140664  3.9162347
-0.16866735  0.06635769  4.1872916
-0.25382888  0.08935325  4.249923
-1.9944319   0.31253254  4.306361
1.1957775  -0.08204117  3.9385486
0.9933955  -0.04736802  3.9204948
0.58381844 0.01441478 3.8294613
0.6940479  0.02540154 3.8366544
1.7221397  -0.10459694  3.856314
0.68860257 0.03826439 4.3944592
1.1899275  -0.02773966  3.8788188
0.690269   0.04105034 3.8208735
1.190934   -0.01006165  3.856309
0.8860276 0.0328158 3.8133695
0.90161884 0.03142622 3.8221283
1.3763015  -0.03068301  3.8603828
0.86619323 0.04375812 3.8114667
0.6462798  0.12208395 5.1171045
0.8329242  0.07645784 3.7792733
0.62295264 0.11382167 3.7362366
0.5750783 0.1212291 3.7254252
0.71945494 0.11025259 3.7364156
0.5843702  0.12914117 3.7222106
0.670867   0.13374256 3.723429
0.19771436 0.23255245 4.4642386
-1.8023647   0.49214235  3.93368
0.75496274 0.13275084 3.7167225
-1.766186    0.49267912  3.9468708
0.18895462 0.25120205 4.423441
0.7439388  0.13903895 3.7018363
0.670817   0.15415278 3.6900184
0.17044936 0.27194664 4.3674016
0.5805859  0.17713696 3.6698177
0.7356557  0.16804652 3.6792529
-1.3908017  0.4887418  4.008047
-1.475907    0.50313175  3.9271166
1.1964606  0.11870307 3.7220197
0.7230928 0.1855398 3.6642563
0.08445148 0.3194801  4.259561
-0.193183    0.35736156  4.1917467
-1.215121    0.49351564  3.994339
0.14175572 0.31987423 4.2674894
0.12008079 0.32596257 4.261313
-0.10031526  0.3546719   4.1903596
3.9909692e-03 3.4070104e-01 4.2166543e+00
-1.2175815  0.5054984  3.9801154
-1.5011365  0.5495645  3.8043106
0.18090561 0.3439576  4.314345
-0.19015668  0.39488104  4.163292
0.02257795 0.36765313 4.1662173
-0.36281776  0.39741066  3.7057452
0.06300095 0.38021782 4.2196517
0.59595746 0.26369843 3.57436
0.6788535 0.2632014 3.5808673
0.7506516  0.25902495 3.5815964
0.6965018  0.26872826 3.5714753
-0.13557278  0.43827006  4.0347266
0.7165697  0.27003944 3.572429
0.02410648 0.42738152 4.0457664
0.79512274 0.27054554 3.5680866
-0.28236642  0.43611884  3.60103
0.8005272 0.2804471 3.5606012
0.84210145 0.27606755 3.5661125
0.5765262  0.31368172 3.5225947
0.63832575 0.30409274 3.533068
0.58560514 0.3167035  3.520066
0.6230018 0.3139383 3.5245576
1.7442003  0.15897627 3.580432
0.776461   0.30468726 3.5308473
0.62945634 0.5341026  5.388498
0.5560422  0.34653875 3.4875612
0.81575626 0.3109111  3.5266788
0.5725578  0.34725714 3.4880981
0.8048971  0.31697568 3.524123
0.8244084  0.31781313 3.5217006
0.56416285 0.3538179  3.4824884
0.8144306 0.3223597 3.5135262
0.5973833  0.35473326 3.4781091
0.58685607 0.35748434 3.472831
0.63824815 0.34992355 3.4843051
0.8517775  0.32123435 3.513828
-1.000417   0.5765624  3.2234478
0.6996489  0.34532246 3.4846003
0.6637529  0.35721663 3.4769595
0.73077655 0.34685043 3.4830782
-0.90215164  0.5748342   3.2442775
-0.17269523  0.4893535   3.4771385
0.6964884  0.35524142 3.4786248
-0.59121895  0.5425358   3.3222034
-0.95997    0.5936205  3.1919348
-0.731272    0.57144606  3.282619
-0.7195599  0.5362575  2.9950113
0.7025094  0.36941913 3.4595037
-0.16071647  0.50693643  3.4630525
-0.16267036  0.5077722   3.4371035
-0.9365926   0.59938616  3.1720824
0.8413782 0.3611446 3.4709074
0.650883  0.3910737 3.4350579
-0.5522627   0.56244075  3.2609751
0.7881887  0.37512195 3.457804
0.82614446 0.37040436 3.4645813
0.8195122  0.37756276 3.4566114
-0.91905206  0.6128256   3.1420324
0.6824075  0.39889795 3.4299393
0.6985915 0.3995058 3.4308379
0.7153302 0.4003552 3.4297788
0.6900463  0.40573135 3.4251385
-0.9718044   0.62780255  3.0902383
0.6807419 0.4107398 3.4163888
0.7482745  0.40242383 3.4269662
0.71162856 0.4102809  3.4249537
0.7677076  0.40539512 3.4253607
0.7862514  0.40433827 3.4259896
0.70691687 0.41728166 3.4096525
0.17989999 0.5701123  3.8778899
-0.89043474  0.6348708   3.094235
-0.8411304   0.63260627  3.1354873
-0.9231284  0.6442736  3.0971045
0.6042896  0.43998867 3.3847597
-0.57480925  0.6008519   3.1687894
0.84394735 0.408491   3.4241734
0.8276508  0.41090375 3.4117558
0.05210893 0.5352212  3.379201
0.07104531 0.53152245 3.3751857
-1.474336    0.72728336  2.9948168
0.5642018  0.45262632 3.369477
0.8986327 0.4060082 3.430017
0.85188586 0.41438565 3.4157782
0.8758456  0.41504967 3.4237504
0.84326476 0.41953248 3.4083855
0.6398138  0.45069855 3.373597
0.8592978  0.42186925 3.4102063
-0.45299792  0.6047001   3.178257
0.60208505 0.45932943 3.3652947
-0.67391324  0.63176835  3.1085842
0.70059407 0.44734508 3.3776226
-0.80049014  0.70798826  3.4679687
0.62229156 0.45977962 3.3651211
0.6739976  0.45226344 3.372726
0.75760096 0.44268674 3.3818498
-0.8434845   0.65679765  3.0392902
0.02375101 0.5595219  3.330085
-0.5220801   0.62055796  3.1209114
0.7725044 0.450583  3.3761826
0.67238885 0.46679735 3.356132
0.8303043  0.44688448 3.383099
0.71607244 0.46555308 3.3597534
0.7795275  0.45667362 3.371205
0.7294071  0.46693137 3.3586667
0.867749   0.44764984 3.382359
0.78993773 0.4552892  3.3462586
-1.1783762  0.7181469  2.9170837
0.875036   0.45327327 3.3773506
-0.89320946  0.6828333   2.968805
-0.5744152  0.6496237  3.0942144
0.86743176 0.45894745 3.3702066
0.83959305 0.4664845  3.3627505
0.8793    0.4604682 3.3708608
0.9465511  0.45388466 3.3809412
0.9540697  0.46714216 3.3641543
-0.7456313   0.68637127  2.9588528
0.94496053 0.47239894 3.3563945
-0.75405693  0.6894466   2.9518707
-1.0111665  0.7310708  2.8806605
-0.55953526  0.6757624   2.991828
-0.81211895  0.7161      2.9057806
-0.81183654  0.7188377   2.8885126
-0.83471364  0.72395444  2.8914058
-0.7357694  0.71288    2.9136534
-0.7906661  0.718737   2.8862946
-1.1136588  0.7613509  2.7785141
-0.74366707  0.7266481   2.9066567
-0.35850608  0.67846423  2.9925518
-0.7923902   0.73106176  2.8502543
-0.77020967  0.73194957  2.854286
-0.5481779   0.64126635  2.5849285
-1.5458643  0.8926557  2.9625282
-1.5281804   0.88824636  2.9625306
0.598819   0.57486635 3.240847
-0.79009986  0.74203473  2.8384163
0.54292554 0.5881313  3.2252026
0.6005348 0.5835163 3.2300477
-0.63286835  0.79862475  3.211868
0.73648536 0.57544315 3.2383943
-0.96562594  0.78056467  2.7459278
0.7260529 0.582356  3.2355523
0.7436625 0.5810628 3.232293
-0.9696865  0.7531987  2.5855064
0.75523704 0.5833521  3.2273078
0.7760318 0.5842    3.2356517
-0.5506982   0.73934317  2.8467422
0.7930231  0.58457017 3.2310896
0.7700863 0.5912577 3.2215362
0.81972855 0.5861848  3.2339911
0.6716202 0.6065104 3.2008777
-0.60734725  0.7495017   2.7893956
-1.0303357  0.800182   2.671551
-0.72136545  0.7682683   2.7727516
0.82529956 0.5923374  3.227166
0.88494825 0.58622485 3.235859
-0.69366544  0.7705006   2.7711525
0.8159681 0.5982598 3.2219098
-0.65982664  0.77767324  2.7972534
0.14770405 0.74883854 3.3205948
-1.0314232   0.81558824  2.6500866
0.81630856 0.6073684  3.212712
0.8759697 0.5997604 3.2214596
0.8059368 0.6147421 3.2035768
0.8494347 0.6080998 3.2077339
-0.7556524  0.7985991  2.743415
0.81324965 0.621034   3.1969862
-0.5403695  0.8128977  2.7262626
-1.3187581  0.9894513  2.7460585
-1.3865218   0.99786985  2.7128294
-1.3061738   0.99539334  2.7323442
-1.3085606  0.9966549  2.7196624
0.36789635 0.8719586  3.2281132
0.4595891 0.8632464 3.1919835
0.5584509 0.8632927 3.1910083
0.37182122 0.9100634  3.2027628
0.6213974 0.8642605 3.1985362
0.6798545 0.8626972 3.2213972
0.61147845 0.8697914  3.1947021
0.67975235 0.8734801  3.2027748
0.7394526 0.8673902 3.1929905
0.8703329 0.9082394 3.0962343
0.60568273 0.9323634  3.0033762
0.8688112  0.91858387 3.080369
0.8587936 0.9206419 3.069495
0.5865585 0.9863937 3.045611
0.6827552 0.9357565 2.9947925
0.8808502  0.91916084 3.0662262
0.70061445 0.9355013  2.9972067
0.77328396 0.9354879  3.0101607
0.7927975 0.9349239 3.0143442
0.82596004 0.9324438  3.024836
0.8434671  0.93363154 3.02614
0.7759866  -0.96147364  4.8130713
0.9857139 -0.8640173  4.7285233
1.6447078 -0.8442985  4.644816
1.6655579 -0.8397964  4.62874
1.1562471 -0.7095594  4.5720606
0.6377364 -0.3913981  4.251942
0.59922975 -0.36418644  4.2401996
1.4724817  -0.43249464  4.2479887
1.993389   -0.46626312  4.1490674
1.6756083  -0.43105972  4.2096
0.6238182  -0.31172866  4.184132
1.7881458  -0.43259782  4.1814384
1.9917943 -0.4369692  4.1315885
0.8841045  -0.19606932  4.067854
0.69787097 -0.08798663  3.9416044
0.74494535 -0.05361787  3.9174871
0.7329087  0.01442017 3.837715
0.89241827 0.02279709 3.8314533
0.8901019 0.0484411 3.8099492
0.80651516 0.09365218 3.761619
0.77912986 0.14101775 3.7107522
-0.35625485  0.37578037  3.7298272
0.5853078 0.2707205 3.570784
0.61596066 0.27571627 3.5682244
0.7727459  0.25334266 3.5824513
0.8459001  0.30865613 3.5252383
0.74266046 0.32453197 3.5108106
0.8364055  0.31386027 3.5202432
0.6736537  0.34396923 3.4858096
0.8343577 0.323988  3.5069091
0.8056978  0.35204735 3.4799886
-0.9262659   0.59400284  3.2362928
0.559728   0.38973734 3.4414132
-0.61326766  0.5573792   3.2994268
0.84110737 0.37195128 3.460597
0.5617377  0.41247654 3.417649
0.77167004 0.39628008 3.430947
0.64979094 0.416163   3.4118164
0.06584615 0.5213668  3.3943853
0.6142828  0.43543038 3.388545
